# .PCD v0.7 - Point Cloud Data file format
VERSION 0.7
FIELDS x y z intensity
SIZE 4 4 4 4
TYPE F F F F
COUNT 1 1 1 1
WIDTH 1385
HEIGHT 1
VIEWPOINT 0 0 0 1 0 0 0
POINTS 1385
DATA ascii
-26.576521 14.768758 0.25161099 0
-26.062559 8.5595999 -0.91065204 0
-26.223391 14.699531 -0.98115492 0
-26.21789 14.890157 -0.98178667 0
-26.292934 -4.2906771 -0.4051002 0
-26.287746 14.63616 -0.67295682 0
-26.206676 14.89847 -0.59070224 0
-26.110228 -4.2287908 -0.1602982 0
-26.188887 0.32290521 -0.07533256 0
-26.119675 0.59818244 -0.056256343 0
-26.156246 1.0219483 -0.094224811 0
-26.228184 1.409315 -0.08357197 0
-26.234289 14.720093 -0.15395138 0
-26.236032 14.930298 -0.23009831 0
-26.210876 -4.2254915 0.2333468 0
-26.219219 0.25187707 0.11550826 0
-26.230186 0.56289864 0.10147316 0
-26.223063 0.9384141 0.087132715 0
-26.155266 1.4589517 0.11767967 0
-26.095901 9.9820843 0.016182691 0
-26.254076 14.684578 0.17176153 0
-26.06076 0.12450282 0.50068671 0
-26.130432 9.9737787 0.46487573 0
-26.374819 14.652605 0.54158676 0
-25.623447 8.4289064 -0.90642631 0
-25.793777 14.893822 -0.95549798 0
-25.952909 -4.2594271 -0.54275364 0
-25.761095 1.5199633 -0.67924112 0
-25.714415 8.1841946 -0.58214283 0
-25.724203 8.4196568 -0.46126437 0
-25.773851 8.9031553 -0.62147367 0
-25.984097 9.2547817 -0.53152382 0
-25.909973 9.7823629 -0.62976134 0
-25.842615 14.663313 -0.660631 0
-25.809023 14.902013 -0.58008677 0
-25.873539 0.21919031 -0.052132994 0
-25.780117 0.60668343 -0.058908768 0
-25.769386 0.92200589 -0.1377988 0
-25.810163 1.2900099 -0.063048519 0
-25.641024 8.3006048 -0.17826794 0
-25.741735 8.4759264 -0.17089239 0
-25.871847 9.8807459 -0.094280407 0
-25.837593 14.68977 -0.29677474 0
-25.822721 -4.1816816 0.29288793 0
-25.792925 0.21664572 0.20095979 0
-25.782959 0.60741889 0.21065082 0
-25.786083 0.91851228 0.30433449 0
-25.742172 1.3537079 0.084354915 0
-25.656324 8.3127575 0.23481941 0
-25.721222 8.5408735 0.23966777 0
-25.800894 14.643831 0.1949216 0
-25.810635 0.22642431 0.54764318 0
-25.68899 8.5220699 0.59761655 0
-25.777573 14.644438 0.55485702 0
-25.433449 8.2302046 -0.54527402 0
-25.365269 8.4739084 -0.55575413 0
-25.369314 8.9510918 -0.53905708 0
-25.557943 9.6643105 -0.60788459 0
-25.414398 14.660558 -0.63615566 0
-25.514929 0.24246387 -0.10689803 0
-25.403915 0.68045282 -0.11303083 0
-25.407627 0.97060573 -0.13089816 0
-25.391291 1.3912501 -0.09612105 0
-25.444765 8.2809877 -0.18146554 0
-25.379246 8.467062 -0.21056519 0
-25.424301 9.8317537 -0.026568264 0
-25.404449 14.709377 -0.29903963 0
-25.464186 -4.1958489 0.25368202 0
-25.398743 0.18449984 0.15692502 0
-25.391706 0.65031475 0.1978436 0
-25.414623 0.95404738 0.17910463 0
-25.416624 1.3452742 0.092412181 0
-25.45896 8.2802916 0.21477726 0
-25.372473 8.4901266 0.22568946 0
-25.509178 8.9871807 0.33041799 0
-25.531406 9.9520559 0.25432539 0
-25.40554 14.695166 0.16016287 0
-25.416998 0.2686221 0.56745708 0
-25.096788 8.3439684 -0.91227138 0
-25.197861 1.2951183 -0.59026402 0
-24.995106 8.2865191 -0.52854002 0
-24.978722 8.5234308 -0.54382318 0
-24.915762 8.998251 -0.53832871 0
-24.988659 9.293478 -0.57387561 0
-25.145786 9.7597713 -0.6094929 0
-24.951723 14.659423 -0.72998977 0
-24.822311 -2.2017016 -0.058618188 0
-24.961 0.65734494 -0.13167325 0
-24.957193 0.9834038 -0.062457751 0
-25.043091 1.3590193 -0.061705008 0
-24.958973 8.3307505 -0.19439095 0
-24.980965 8.4664345 -0.19167615 0
-25.08626 14.69858 -0.26448515 0
-24.994289 -4.2610626 0.18770839 0
-24.943268 0.20425691 0.23998083 0
-24.985943 0.63080502 0.18532905 0
-25.066793 0.95290571 0.20023902 0
-24.97863 1.3687301 0.080011837 0
-24.958092 8.3595552 0.2267888 0
-24.996178 8.4815817 0.22809136 0
-25.163853 14.741552 0.16129957 0
-24.950991 0.25923789 0.55907673 0
-24.411356 12.515702 -0.9243924 0
-24.594711 1.2200632 -0.52538264 0
-24.471189 12.648358 -0.63450819 0
-24.51432 14.666972 -0.62909013 0
-24.468098 -4.2007704 -0.01565937 0
-24.57823 0.63076907 -0.10832407 0
-24.779608 0.92257524 -0.013984315 0
-24.729904 1.442511 -0.060771823 0
-24.478762 12.632135 -0.18477684 0
-24.459066 14.791996 -0.16723283 0
-24.497513 -4.2716188 0.28226638 0
-24.625616 -2.277154 0.18839365 0
-24.622828 0.2132771 0.23377277 0
-24.600618 0.64130676 0.19563854 0
-24.600258 0.94375116 0.18263185 0
-24.5389 1.4222234 0.14040026 0
-24.481802 12.77409 0.15293175 0
-24.63121 0.62345237 0.58141321 0
-24.430099 12.668839 0.59420496 0
-24.294041 4.7885957 -0.99349755 0
-24.244591 5.0573063 -0.91914493 0
-24.113771 12.610011 -0.92922306 0
-24.229357 14.936471 -0.99737751 0
-24.201115 1.0889146 -0.403346 0
-24.198904 1.330922 -0.49289036 0
-24.019991 4.331779 -0.41039312 0
-24.167484 4.5835671 -0.50318736 0
-24.226086 5.020184 -0.52670819 0
-24.113132 12.578332 -0.60384154 0
-24.184586 14.728759 -0.64424223 0
-24.245169 14.943169 -0.59824198 0
-24.253849 -4.1631074 -0.14251719 0
-24.259563 -2.1374121 -0.0018404126 0
-24.04468 0.26073623 -0.13232759 0
-24.158575 0.60237104 -0.14738366 0
-24.187666 1.038034 -0.17737871 0
-24.141214 1.444562 -0.046190679 0
-24.151825 4.6406078 -0.15632953 0
-24.183172 5.0088048 -0.17702886 0
-24.105419 12.582786 -0.19578741 0
-24.190338 14.75098 -0.23947774 0
-24.189774 -4.1435304 0.27378276 0
-24.189987 -2.1978445 0.27225694 0
-24.172153 -1.8067675 0.24293788 0
-24.138308 0.15993126 0.24545309 0
-24.155235 0.60865885 0.20581633 0
-24.126604 0.99854529 0.23032679 0
-24.09333 1.409832 0.29363489 0
-24.092922 4.7701063 0.21827653 0
-24.14451 5.0010815 0.1956359 0
-24.105186 12.59094 0.19923647 0
-24.29347 14.759401 0.024352722 0
-24.166721 -2.2198963 0.58534968 0
-24.151545 -1.7980841 0.58137298 0
-24.227255 4.7458563 0.59439975 0
-24.0947 12.622939 0.59788162 0
-24.153442 14.765468 0.53329313 0
-23.897324 12.487375 -0.99353266 0
-23.865091 14.651439 -0.99017948 0
-23.844917 14.913245 -0.96585709 0
-23.627468 15.513148 -0.89954758 0
-23.619598 15.753901 -0.92798722 0
-23.632355 16.213175 -0.98176122 0
-23.635124 16.574631 -0.97988749 0
-23.642176 16.938301 -0.94448715 0
-23.642372 17.365002 -0.83401954 0
-23.631098 18.298758 -0.94754565 0
-23.638081 18.58922 -0.96912694 0
-23.656626 19.09594 -0.93311644 0
-23.628914 19.422419 -0.95622462 0
-23.645281 19.79829 -0.91430777 0
-23.660423 20.235334 -0.98563892 0
-23.675127 20.510998 -0.95210069 0
-23.647907 21.257286 -0.99836862 0
-23.843151 1.4746487 -0.40885687 0
-23.768738 4.7076783 -0.46665454 0
-23.846849 4.8990331 -0.56027162 0
-23.848799 12.51882 -0.59372658 0
-23.756216 14.757785 -0.67887866 0
-23.794115 14.906106 -0.56961018 0
-23.628117 15.797261 -0.57433671 0
-23.632221 16.176434 -0.58060139 0
-23.629713 16.535219 -0.59594464 0
-23.634621 17.011578 -0.6175493 0
-23.63752 17.412046 -0.6111939 0
-23.621155 17.890659 -0.66819555 0
-23.643465 18.216087 -0.62885845 0
-23.657005 18.629431 -0.63444471 0
-23.629978 19.105885 -0.56163675 0
-23.626585 19.330515 -0.61575317 0
-23.633699 19.786205 -0.41678748 0
-23.653069 20.283501 -0.47003129 0
-23.67342 20.622282 -0.60267138 0
-23.667412 21.29253 -0.67912591 0
-23.616173 -4.9626999 -0.21558541 0
-23.601658 -4.6526403 -0.11324322 0
-23.905281 -4.0299873 -0.0082502998 0
-23.913507 0.18253389 -0.12727597 0
-23.875229 0.64903498 -0.16904643 0
-23.876982 0.9798314 -0.17411692 0
-23.707914 1.4399281 -0.042919226 0
-23.806877 4.6004868 -0.22960834 0
-23.818939 4.9230585 -0.18638706 0
-23.848537 12.527767 -0.1763252 0
-23.76947 14.788501 -0.28873727 0
-23.62524 15.768976 -0.17371611 0
-23.631355 16.258221 -0.18016769 0
-23.633539 16.557877 -0.19545458 0
-23.630751 17.030638 -0.17675249 0
-23.644531 17.411066 -0.20269468 0
-23.640108 17.804403 -0.16127798 0
-23.652288 18.145622 -0.15281433 0
-23.638269 18.613922 -0.21615808 0
-23.662586 19.072935 -0.19306967 0
-23.63299 19.342085 -0.19000338 0
-23.633118 19.774042 -0.077130198 0
-23.666784 20.796986 -0.051138103 0
-23.672192 20.801514 -0.38110235 0
-23.63879 21.264322 -0.23183283 0
-23.692255 -6.5362334 0.19071901 0
-23.620884 -5.9049883 0.070634395 0
-23.616728 -4.5969772 0.28603223 0
-23.786505 -4.1314554 0.27992454 0
-23.999216 -2.3861208 0.39271748 0
-23.805721 -1.7697219 0.23262547 0
-23.908876 0.2753861 0.13522795 0
-23.900763 0.60562003 0.16709204 0
-23.901384 0.9670065 0.21528335 0
-23.897749 1.3438315 0.20051768 0
-23.832842 4.7124481 0.12806824 0
-23.81415 4.9560633 0.20426381 0
-23.805889 12.50079 0.22573712 0
-23.621607 15.798368 0.22152865 0
-23.626854 16.225214 0.27293837 0
-23.630217 16.62252 0.20947361 0
-23.64123 17.050827 0.23395824 0
-23.638647 17.358763 0.18575375 0
-23.641432 17.746578 0.11302435 0
-23.65686 18.192764 0.22573061 0
-23.649101 18.612377 0.25590712 0
-23.637827 18.995171 0.084865846 0
-23.627974 19.332438 0.26683649 0
-23.633278 20.245722 0.20809142 0
-23.641533 20.472317 0.17538296 0
-23.65188 20.978861 0.26849243 0
-23.603104 21.348118 0.28307661 0
-23.605486 -6.2071924 0.45405355 0
-23.603474 -5.4002595 0.4830575 0
-23.73391 -2.0600584 0.58180386 0
-23.85416 0.19155933 0.51964927 0
-23.96199 0.99792463 0.59279168 0
-23.937832 1.41628 0.59953547 0
-23.870653 4.5965357 0.52949113 0
-23.627842 15.80455 0.59513003 0
-23.629551 17.346302 0.57279336 0
-23.676964 17.772552 0.54170161 0
-23.620708 18.241386 0.51128918 0
-23.640348 18.676561 0.55827099 0
-23.645695 19.040009 0.53045422 0
-23.634146 19.285837 0.57841736 0
-23.675514 21.44886 0.47574025 0
-23.629496 21.820555 0.40430331 0
-23.463257 14.694429 -0.98758399 0
-23.429981 14.962211 -0.96962541 0
-23.420477 15.386932 -0.96490943 0
-23.511259 15.806166 -0.88384485 0
-23.522438 16.198748 -0.91163254 0
-23.532007 16.670658 -0.92247123 0
-23.50248 17.026196 -0.99333614 0
-23.506926 17.417498 -0.95722634 0
-23.514317 17.819 -0.95602 0
-23.49262 18.22242 -0.98641253 0
-23.455427 19.770607 -0.97760159 0
-23.518093 20.614582 -0.97040582 0
-23.514412 21.07551 -0.97278237 0
-23.404352 14.732737 -0.65050173 0
-23.439346 14.975348 -0.58477205 0
-23.439665 15.416399 -0.58239096 0
-23.518763 15.767361 -0.60580516 0
-23.475651 16.184984 -0.61977953 0
-23.527403 16.647499 -0.58450651 0
-23.54303 16.962818 -0.57014555 0
-23.547709 17.461493 -0.57583642 0
-23.55706 17.832861 -0.57001013 0
-23.52281 18.232637 -0.56191617 0
-23.514183 18.625422 -0.59353465 0
-23.513334 19.078009 -0.63550633 0
-23.474522 19.394472 -0.58852398 0
-23.487637 19.810909 -0.6057319 0
-23.522274 20.253708 -0.59296221 0
-23.508295 20.592638 -0.60431439 0
-23.4977 21.089653 -0.57527518 0
-23.463377 21.353899 -0.59985548 0
-23.341585 21.747217 -0.48207733 0
-23.446383 -5.7954779 -0.02150631 0
-23.474335 -4.4689713 -0.097340807 0
-23.472343 -4.1949372 -0.14668804 0
-23.425171 -2.1814821 -0.091066241 0
-23.413221 -1.8688022 -0.11909865 0
-23.406887 14.761963 -0.22627825 0
-23.449692 14.971622 -0.16961634 0
-23.434256 15.41775 -0.16404319 0
-23.498161 15.74662 -0.17912699 0
-23.539856 16.150284 -0.15740578 0
-23.545918 16.649174 -0.24430139 0
-23.547686 16.988485 -0.17543885 0
-23.545637 17.467075 -0.24219176 0
-23.546087 17.819548 -0.22405075 0
-23.527153 18.218067 -0.18418215 0
-23.52907 18.608562 -0.20520955 0
-23.537064 19.028606 -0.1910563 0
-23.463444 19.367674 -0.18351771 0
-23.480148 19.793909 -0.16139461 0
-23.5144 20.232038 -0.22894242 0
-23.523024 20.604273 -0.2504116 0
-23.505854 21.075356 -0.21791178 0
-23.433701 21.375895 -0.2058998 0
-23.204508 21.783411 -0.030401787 0
-23.41951 -8.2096233 0.35258168 0
-23.386549 -7.67764 0.35959691 0
-23.408384 -7.4070921 0.34873077 0
-23.433756 -7.0212798 0.31456357 0
-23.411207 -6.6147161 0.2947104 0
-23.41897 -6.239893 0.29896429 0
-23.457233 -5.7828989 0.24233063 0
-23.460655 -5.3938136 0.25515398 0
-23.462833 -4.9472017 0.21863587 0
-23.481716 -4.6189408 0.23064166 0
-23.469271 -4.2242751 0.25044915 0
-23.453831 -2.1894844 0.23692332 0
-23.444502 -1.8186239 0.2215222 0
-23.413063 14.740695 0.15058485 0
-23.447254 14.973104 0.202337 0
-23.421755 15.418027 0.18974288 0
-23.454517 15.739996 0.20530936 0
-23.526012 16.180004 0.20512463 0
-23.541636 16.614414 0.20097913 0
-23.522472 16.994732 0.23280582 0
-23.543148 17.420715 0.20623809 0
-23.545076 17.826609 0.20468757 0
-23.509848 18.256289 0.17021079 0
-23.507679 18.646219 0.14928491 0
-23.536715 19.020794 0.20084561 0
-23.458473 19.392292 0.18867245 0
-23.512321 19.79591 0.1907455 0
-23.50194 20.164009 0.18240857 0
-23.519526 20.607765 0.18455775 0
-23.49968 21.060671 0.049857542 0
-23.441923 21.439867 0.21208154 0
-23.483696 21.672472 0.38337252 0
-23.465179 -4.6212988 0.58422875 0
-23.462017 -2.2402902 0.59091806 0
-23.448431 -1.7966572 0.58935541 0
-23.428621 14.755448 0.56883436 0
-23.446836 15.000894 0.58304894 0
-23.397217 15.388796 0.59008896 0
-23.526842 17.467043 0.57821161 0
-23.488159 17.876453 0.59502262 0
-23.51539 18.238523 0.59362 0
-23.505615 18.561546 0.55557895 0
-23.513201 18.969927 0.58669823 0
-23.49473 20.262421 0.57061356 0
-23.462265 20.982607 0.56585789 0
-23.438438 21.432625 0.58143061 0
-23.305645 21.841026 0.51078784 0
-22.988214 19.422812 -0.55283803 0
-23.126125 21.774754 -0.61627263 0
-22.962646 19.41399 -0.16175887 0
-22.862595 19.623959 -0.053891771 0
-23.098291 21.814346 -0.21649666 0
-23.054659 19.486101 0.19339924 0
-22.946629 19.609837 0.040768653 0
-23.10589 21.570324 0.37537861 0
-23.135422 21.8437 0.26163524 0
-23.066027 21.83913 0.57043427 0
-22.546127 19.371569 -0.96091264 0
-22.560684 19.380455 -0.60744178 0
-22.572029 19.417723 -0.19684242 0
-22.442684 19.680021 -0.1448333 0
-22.598656 19.389734 0.19565219 0
-22.534573 19.625816 0.21501732 0
-22.652481 21.898951 0.34344965 0
-22.714964 -8.2526035 0.5404312 0
-22.538292 19.446161 0.56862801 0
-22.41917 22.059536 0.40262437 0
-22.17244 19.351837 -0.99223828 0
-22.157183 19.356304 -0.62686157 0
-22.216057 19.624617 -0.63042462 0
-22.078806 19.198994 -0.16457266 0
-22.167551 19.410702 -0.1937578 0
-22.191349 19.643682 -0.31910881 0
-22.226364 21.887791 -0.02054894 0
-22.181742 19.449167 0.20684293 0
-22.15694 19.659527 0.27831632 0
-22.173731 -8.2146378 0.58518362 0
-22.167789 19.501934 0.53481817 0
-22.212141 19.681816 0.58049524 0
-21.756037 19.326965 -0.99945575 0
-21.703711 19.185669 -0.63400847 0
-21.798981 19.403648 -0.58532137 0
-21.74231 19.606544 -0.4058266 0
-21.704464 19.135223 -0.12214955 0
-21.818071 19.425142 -0.18507214 0
-21.726185 19.621403 -0.18934071 0
-21.735411 -8.2439127 0.35851866 0
-21.676334 19.156189 0.28037155 0
-21.813526 19.397488 0.22120427 0
-21.737371 19.654034 0.29058796 0
-21.801655 19.450375 0.58951229 0
-21.367624 19.391947 -0.99113184 0
-21.557777 19.600552 -0.80741775 0
-21.405371 19.424961 -0.61542875 0
-21.403183 19.638023 -0.56973886 0
-21.38443 19.435444 -0.20043366 0
-21.364891 19.639793 -0.25481641 0
-21.438015 -8.240922 0.3483035 0
-21.396429 19.449636 0.21083577 0
-21.501381 19.638029 0.23056 0
-21.374578 -8.2484055 0.44805884 0
-21.409986 19.505949 0.59809911 0
-21.466475 19.629791 0.58696449 0
-21.440794 21.923578 0.41682681 0
-20.871689 22.030182 -0.9331218 0
-21.051016 19.394585 -0.61064339 0
-21.051781 19.633862 -0.59862316 0
-20.845015 21.946892 -0.55688745 0
-21.048933 19.427654 -0.19231685 0
-20.916794 19.632973 -0.23575836 0
-21.050707 19.439213 0.17992511 0
-21.01211 19.630129 0.23103054 0
-20.806652 21.871895 0.098254144 0
-21.168413 22.070282 0.38267106 0
-21.059231 19.454586 0.56290704 0
-21.037844 19.647388 0.59222132 0
-20.989653 21.947021 0.41988173 0
-20.456329 2.208478 -0.92155999 0
-20.474459 7.5087948 -0.97023231 0
-20.484596 8.886158 -0.87489974 0
-20.503967 9.3929272 -0.84642446 0
-20.482027 9.8462801 -0.83345962 0
-20.421671 10.56718 -0.97658652 0
-20.504066 21.402121 -0.98310143 0
-20.463394 -0.23215675 -0.40714157 0
-20.415922 0.58235741 -0.6701647 0
-20.410431 1.023618 -0.69199651 0
-20.441042 1.4064463 -0.44071972 0
-20.461967 1.8015537 -0.49550548 0
-20.473093 2.1390767 -0.58520979 0
-20.466312 5.372149 -0.50709468 0
-20.519339 5.7653608 -0.50778919 0
-20.500706 6.1606598 -0.50894201 0
-20.507898 6.6169891 -0.5368529 0
-20.605124 6.956038 -0.50564498 0
-20.444481 7.3747749 -0.46002924 0
-20.528587 7.8078051 -0.55271852 0
-20.484835 8.1412239 -0.51179409 0
-20.484968 8.6526604 -0.60166174 0
-20.493113 9.035121 -0.53202891 0
-20.477661 9.4287415 -0.60844356 0
-20.474598 9.8339424 -0.54577512 0
-20.480742 10.167748 -0.56972283 0
-20.469013 10.646414 -0.59524614 0
-20.488516 10.89292 -0.56576288 0
-20.571917 19.510611 -0.60260409 0
-20.784912 19.639214 -0.74305367 0
-20.45203 21.33667 -0.58342624 0
-20.489115 21.666786 -0.55870861 0
-20.494747 -0.22426473 -0.17479907 0
-20.551855 0.24689414 -0.10305876 0
-20.514498 0.56784493 -0.12373893 0
-20.519192 1.0062565 -0.13388138 0
-20.513262 1.424889 -0.10258736 0
-20.467289 1.8230132 -0.10446282 0
-20.505941 2.1996629 -0.12629883 0
-20.504486 2.6219485 -0.13610999 0
-20.495665 5.4224677 -0.21079092 0
-20.484344 5.7896938 -0.21334635 0
-20.459526 6.1911869 -0.19315362 0
-20.473955 6.594913 -0.18107259 0
-20.468853 7.026989 -0.21752973 0
-20.457714 7.3849397 -0.20518485 0
-20.460434 7.8160486 -0.22810221 0
-20.465466 8.2391872 -0.18380785 0
-20.450966 8.6197519 -0.20144054 0
-20.452417 9.048233 -0.18980689 0
-20.452137 9.3995056 -0.21375468 0
-20.454201 9.7912006 -0.22002038 0
-20.4774 10.136126 -0.18059146 0
-20.447643 10.643488 -0.19863406 0
-20.477627 10.912298 -0.21509126 0
-20.561178 19.501862 -0.16161509 0
-20.683889 19.629131 -0.24895245 0
-20.411606 21.286173 -0.15113068 0
-20.578125 21.725155 -0.19684066 0
-20.542896 -8.1733341 0.29928234 0
-20.494963 -0.19022457 0.19197915 0
-20.484455 0.17626581 0.20863169 0
-20.492762 0.59939915 0.18643408 0
-20.48064 0.9910807 0.18939947 0
-20.499537 1.3702313 0.19534728 0
-20.498289 1.7874291 0.19753398 0
-20.48316 2.213804 0.21503308 0
-20.473354 2.5797727 0.16285767 0
-20.455544 5.4362931 0.22417219 0
-20.463394 5.769001 0.20386785 0
-20.465734 6.1680946 0.20333764 0
-20.463755 6.5554895 0.20014718 0
-20.477665 6.9749007 0.22141436 0
-20.475243 7.3597355 0.17281051 0
-20.465046 7.8312297 0.18763833 0
-20.457205 8.2230339 0.21759564 0
-20.468525 8.5930948 0.20972432 0
-20.452545 9.0107346 0.23673119 0
-20.451984 9.3813057 0.21389817 0
-20.43635 9.7828293 0.2258036 0
-20.472506 10.181984 0.24228418 0
-20.432341 10.599225 0.20445523 0
-20.44211 10.882243 0.22056322 0
-20.591587 19.511797 0.16533504 0
-20.665745 19.626192 0.13218397 0
-20.494347 21.421925 0.062591285 0
-20.550827 21.752913 0.25414678 0
-20.496243 -0.18461578 0.58520502 0
-20.46953 0.61035764 0.59341019 0
-20.492544 1.4029628 0.58033484 0
-20.461409 5.7702379 0.58864152 0
-20.455101 6.1902299 0.58862901 0
-20.451948 6.5689516 0.57529908 0
-20.465164 7.7951193 0.55380028 0
-20.467751 8.1976128 0.57520097 0
-20.453743 8.5852299 0.56324589 0
-20.456701 8.976675 0.59004939 0
-20.461845 9.4037342 0.57672524 0
-20.4503 9.7807798 0.53234732 0
-20.468988 10.195711 0.57813972 0
-20.611938 19.581808 0.5763455 0
-20.43413 21.464661 0.40158975 0
-20.342113 8.5587025 -0.96387708 0
-20.392498 9.1872482 -0.925035 0
-20.305935 9.8828373 -0.89071846 0
-20.220863 10.266859 -0.97550249 0
-20.362514 10.664277 -0.87665945 0
-20.260273 14.931851 -0.96838677 0
-20.263353 15.40534 -0.94415909 0
-20.167736 15.761013 -0.95940304 0
-20.211681 16.18084 -0.98954552 0
-20.129652 16.983759 -0.96447188 0
-20.088724 17.424372 -0.95388818 0
-20.107956 17.842447 -0.98319179 0
-20.172159 18.225677 -0.97808677 0
-20.143314 20.150227 -0.99990952 0
-20.120098 20.652918 -0.99864852 0
-20.221292 21.082693 -0.97643119 0
-20.142601 21.280123 -0.96232259 0
-20.276123 -0.27629995 -0.46149239 0
-20.368822 0.98427522 -0.54448313 0
-20.282146 1.7644045 -0.74518263 0
-20.309177 2.2248757 -0.56349701 0
-20.320055 5.4099021 -0.4959805 0
-20.245224 5.8276601 -0.57863861 0
-20.366018 6.161521 -0.43330783 0
-20.326071 6.6766052 -0.51035249 0
-20.380062 6.9889865 -0.53492349 0
-20.337734 7.4214416 -0.52087373 0
-20.348131 8.1632481 -0.55370867 0
-20.224081 8.6108971 -0.52467811 0
-20.308529 8.9261045 -0.47665206 0
-20.355595 9.3296595 -0.52927363 0
-20.32118 9.8277969 -0.59913069 0
-20.348145 10.194158 -0.61006606 0
-20.310658 10.621932 -0.55447203 0
-20.217146 10.888306 -0.58486515 0
-20.247055 14.941811 -0.55498374 0
-20.255991 15.426669 -0.58141387 0
-20.102068 15.8024 -0.5844174 0
-20.105642 16.177944 -0.58105725 0
-20.095165 16.629181 -0.62977552 0
-20.126677 16.988035 -0.59362024 0
-20.088564 17.431057 -0.60670573 0
-20.134741 17.877493 -0.61888492 0
-20.121691 18.24478 -0.66220015 0
-20.161011 18.59042 -0.58709967 0
-20.204575 18.988186 -0.56905758 0
-20.165995 19.399094 -0.59772879 0
-20.123119 19.823271 -0.56570739 0
-20.169462 20.203278 -0.6473217 0
-20.098858 20.57745 -0.65743965 0
-20.172932 20.892345 -0.55246663 0
-20.157499 21.334238 -0.60240841 0
-20.259832 21.65064 -0.5771324 0
-20.325214 -4.4471149 -0.13501245 0
-20.108675 -4.0033407 -0.0068738461 0
-20.194147 -3.8173828 -0.050044965 0
-20.239393 -0.26156297 -0.16525482 0
-20.392126 0.17058778 -0.18493988 0
-20.319565 0.55336434 -0.21247217 0
-20.340006 1.0233645 -0.16260646 0
-20.321064 1.4457196 -0.096307717 0
-20.324537 1.8499262 -0.048084397 0
-20.346319 2.1506164 -0.10237171 0
-20.327532 2.594698 -0.14116772 0
-20.305063 5.3876743 -0.17654385 0
-20.322884 5.8219504 -0.15971373 0
-20.347065 6.2309628 -0.16679914 0
-20.31864 6.705842 -0.19568686 0
-20.336203 6.9682536 -0.17106123 0
-20.342392 7.4225235 -0.20679957 0
-20.341154 7.7867055 -0.21336694 0
-20.33835 8.17764 -0.1670614 0
-20.342871 8.6108131 -0.21981673 0
-20.337259 9.0109329 -0.20350435 0
-20.349499 9.4133472 -0.21619897 0
-20.348591 9.8071566 -0.21356428 0
-20.343374 10.206388 -0.23242231 0
-20.323809 10.639138 -0.17710942 0
-20.260159 10.917131 -0.18395759 0
-20.228104 14.921735 -0.20893182 0
-20.251438 15.452616 -0.19297467 0
-20.083279 15.817422 -0.20175651 0
-20.122726 16.171848 -0.17652331 0
-20.089485 16.612505 -0.19575799 0
-20.106031 16.973932 -0.15210414 0
-20.101618 17.409502 -0.17381112 0
-20.098988 17.822948 -0.21478778 0
-20.124697 18.238815 -0.19126679 0
-20.132662 18.593132 -0.19071735 0
-20.176237 19.023333 -0.20977783 0
-20.148958 19.426571 -0.21246208 0
-20.108608 19.776104 -0.2149605 0
-20.136591 20.182888 -0.23192087 0
-20.127377 20.628206 -0.22210172 0
-20.180805 20.986523 -0.14265957 0
-20.231241 21.321142 -0.20306686 0
-20.313793 21.756882 -0.1920816 0
-20.131229 -8.243063 0.37303519 0
-20.343618 -4.6821966 0.29226953 0
-20.248779 -4.1640997 0.24853411 0
-20.206581 -3.7723134 0.10272475 0
-20.263391 -0.19043337 0.20661347 0
-20.363981 0.21818763 0.23905846 0
-20.334408 0.58519167 0.23506975 0
-20.335979 1.0347836 0.2081383 0
-20.341671 1.3960468 0.20346642 0
-20.34127 1.8356575 0.19870386 0
-20.347977 2.1834545 0.19141291 0
-20.339315 2.5752227 0.18992186 0
-20.349892 5.4194508 0.19203798 0
-20.343115 5.7707381 0.20099616 0
-20.347048 6.2285175 0.16449289 0
-20.333334 6.6603017 0.18788622 0
-20.342882 7.0193868 0.20725359 0
-20.360973 7.4136066 0.22152567 0
-20.348351 7.8052745 0.19280966 0
-20.331003 8.121562 0.24527973 0
-20.355692 8.5728064 0.2110384 0
-20.294188 9.0132189 0.19107231 0
-20.338017 9.3853426 0.19434099 0
-20.347876 9.8194647 0.18733171 0
-20.328859 10.208874 0.203794 0
-20.327042 10.638272 0.2348479 0
-20.26211 10.931762 0.20280892 0
-20.227865 14.910861 0.20590526 0
-20.234316 15.410969 0.17800249 0
-20.132349 15.77638 0.13851477 0
-20.098818 16.205793 0.17647171 0
-20.082613 16.634773 0.20319338 0
-20.089777 16.976183 0.24355187 0
-20.115974 17.417053 0.18811944 0
-20.121798 17.835835 0.19970198 0
-20.118279 18.245253 0.22351427 0
-20.095469 18.612659 0.20779212 0
-20.125671 19.007908 0.16774224 0
-20.170946 19.44696 0.14654469 0
-20.166605 19.749027 0.17228286 0
-20.138651 20.188431 0.25553277 0
-20.165205 20.587425 0.050915122 0
-20.197832 20.995728 0.057968751 0
-20.190908 21.339237 0.18361489 0
-20.254311 21.725719 0.15601364 0
-20.235458 -8.153966 0.46624371 0
-20.33749 -4.5752234 0.58636963 0
-20.25436 -0.16355592 0.59739316 0
-20.378542 0.20195663 0.59460348 0
-20.343596 5.7686787 0.5935322 0
-20.340378 6.1780362 0.57494777 0
-20.356087 6.6129236 0.59026772 0
-20.324099 6.9402919 0.59840322 0
-20.353582 8.6079264 0.59793127 0
-20.354176 9.4203329 0.59085983 0
-20.348085 9.8241625 0.57462078 0
-20.341578 10.232568 0.57627583 0
-20.243292 10.933853 0.59479272 0
-20.108141 16.293312 0.55476469 0
-20.069885 16.64859 0.59163958 0
-20.075821 16.977705 0.58040243 0
-20.057045 17.348427 0.51306641 0
-20.046553 17.681562 0.54759681 0
-20.155113 18.62664 0.55180043 0
-20.244091 18.963758 0.56854266 0
-20.103239 19.400658 0.52057987 0
-20.13773 19.708836 0.48851597 0
-20.118813 20.232176 0.5886066 0
-20.128902 20.617676 0.48963708 0
-19.804314 10.759264 -0.81551373 0
-19.79442 10.88732 -0.94133967 0
-19.714787 14.860786 -0.943376 0
-19.812746 15.240848 -0.81615907 0
-19.944757 15.863719 -0.87123567 0
-19.976603 16.083708 -0.90922046 0
-19.920843 16.526354 -0.98157448 0
-19.866358 17.419641 -0.99380827 0
-19.968185 17.799015 -0.8246417 0
-19.988947 19.108955 -0.87397909 0
-19.880459 19.307537 -0.88658762 0
-19.968637 21.216602 -0.97087735 0
-19.884401 -4.3683901 -0.76229608 0
-19.859486 2.7100825 -0.45575678 0
-19.717783 5.2859955 -0.5330466 0
-19.813671 10.756371 -0.54129422 0
-19.782825 10.887224 -0.57356524 0
-19.935665 15.514594 -0.50755596 0
-19.915415 15.796586 -0.52777904 0
-19.948759 16.135757 -0.52614754 0
-19.928307 16.541433 -0.48157772 0
-19.936357 17.045879 -0.54398406 0
-19.92992 17.372791 -0.49392912 0
-19.947784 17.809553 -0.42790538 0
-19.96244 18.139496 -0.52271688 0
-19.985418 18.657963 -0.58145648 0
-19.986641 19.040251 -0.52534366 0
-19.942371 19.267014 -0.56449616 0
-19.886642 21.105057 -0.57969439 0
-19.956625 21.267509 -0.60785931 0
-19.787546 -4.8022823 -0.12827535 0
-19.78113 -4.2290454 -0.089514405 0
-19.800285 -3.7879376 -0.073432982 0
-19.856552 -0.26005495 -0.13629264 0
-19.682852 2.6858804 -0.051130284 0
-19.679138 5.3890324 -0.11604024 0
-19.760025 10.756514 -0.19424462 0
-19.801952 10.918995 -0.18436275 0
-19.766413 14.881664 -0.19169751 0
-19.829491 15.371326 -0.32298383 0
-19.995514 15.811781 -0.25070247 0
-19.937275 16.18049 -0.064141624 0
-19.942904 16.613251 -0.15384403 0
-19.92938 17.043829 -0.12186821 0
-19.955505 17.377077 -0.12275273 0
-19.925241 17.770767 -0.21678205 0
-19.939169 18.192118 -0.062264651 0
-19.952587 18.66766 -0.14171296 0
-19.982607 19.052298 -0.19755799 0
-19.919117 19.296274 -0.16122794 0
-19.996021 20.352062 -0.08276242 0
-19.986137 20.78167 -0.059815198 0
-19.98313 21.070555 -0.14344457 0
-19.994165 21.283144 -0.21137013 0
-19.706696 -8.1710701 0.35995519 0
-19.76174 -4.2193785 0.23482509 0
-19.799833 -3.8084426 0.11964312 0
-19.838369 -0.22753339 0.25204384 0
-19.647003 0.047042847 0.17001043 0
-19.680893 2.6767175 0.24711178 0
-19.741339 5.3186326 0.21952964 0
-19.752224 5.6928658 0.15795429 0
-19.645161 10.790994 0.32020965 0
-19.777975 10.917413 0.21627271 0
-19.768539 14.884644 0.20484053 0
-19.795439 15.307635 0.17759943 0
-19.958799 15.814896 0.15411763 0
-19.949862 16.293709 0.12273917 0
-19.967203 16.64286 0.22489703 0
-19.962074 17.03915 0.21753594 0
-19.932352 17.430515 0.23336007 0
-19.90873 17.86389 0.25394297 0
-19.936783 18.126238 0.19659336 0
-19.975111 18.687523 0.23727114 0
-19.931944 19.007893 0.23899001 0
-19.91877 19.274258 0.31021917 0
-19.936687 20.744936 0.11640266 0
-19.919832 21.09276 0.12639773 0
-19.949053 21.387337 0.16004133 0
-19.774166 -8.2242689 0.42603719 0
-19.752964 -3.8425593 0.58116794 0
-19.652674 10.798952 0.56727982 0
-19.827179 10.935061 0.57624125 0
-19.925838 15.816188 0.58821726 0
-19.924839 16.195671 0.58121252 0
-19.919924 16.609699 0.50523388 0
-19.9263 16.968935 0.55399227 0
-19.932966 17.318741 0.53523946 0
-19.932997 18.634232 0.52679205 0
-19.927176 18.983639 0.58213711 0
-19.790472 19.712378 0.51375544 0
-19.97543 21.008701 0.59676123 0
-19.949537 21.301294 0.54914254 0
-19.373306 10.946806 -0.9202072 0
-19.374413 14.91917 -0.96154457 0
-19.321373 5.4538989 -0.44591647 0
-19.391541 10.752414 -0.56918156 0
-19.382702 10.893753 -0.6184085 0
-19.37113 14.933522 -0.58857358 0
-19.370432 -0.24509452 -0.10624403 0
-19.368395 2.6564763 -0.12883832 0
-19.427849 5.3295841 -0.16953161 0
-19.50271 5.703167 -0.068973541 0
-19.259993 10.760568 -0.12833233 0
-19.384773 10.908361 -0.17427891 0
-19.369432 14.952377 -0.19585587 0
-19.435181 -8.2068491 0.29948846 0
-19.336834 -0.2317158 0.16588235 0
-19.404762 2.657608 0.26721081 0
-19.450449 5.3645349 0.19005232 0
-19.408333 5.6670251 0.23451073 0
-19.375345 10.918044 0.19055974 0
-19.371838 14.978129 0.20791012 0
-19.428682 5.4131379 0.57218432 0
-19.201298 10.776382 0.4055078 0
-19.403934 10.930684 0.5870437 0
-19.370173 14.992419 0.5902254 0
-18.999275 10.886651 -0.95503044 0
-19.00028 14.963458 -0.95834208 0
-18.910721 -0.32110867 -0.49072018 0
-18.951641 10.711576 -0.70239365 0
-18.969366 10.893646 -0.59624928 0
-18.980343 15.021652 -0.58500046 0
-18.995033 -0.2740126 -0.12886694 0
-19.087749 2.6267946 -0.11182524 0
-19.049852 5.3436499 -0.1714837 0
-18.940096 10.612242 -0.24863479 0
-18.995413 10.911404 -0.1675238 0
-18.98312 15.034488 -0.18801513 0
-18.906916 -8.2135057 0.32090059 0
-18.987223 -0.20419766 0.21405503 0
-19.08485 2.6461816 0.22073451 0
-19.013037 5.372232 0.23844546 0
-19.040119 10.707331 0.18260624 0
-18.972601 10.908551 0.17781088 0
-18.986736 15.055829 0.20007288 0
-18.944721 5.3926983 0.54962718 0
-18.913782 10.653467 0.47537416 0
-19.009001 15.065579 0.57662314 0
-18.601841 10.882136 -0.93138635 0
-18.545895 14.942859 -0.92649162 0
-18.757793 -0.33191037 -0.437913 0
-18.717621 5.4471679 -0.50279444 0
-18.575426 10.685484 -0.59960163 0
-18.571426 10.875337 -0.55053949 0
-18.533298 14.975436 -0.57813722 0
-18.705006 -0.28256842 -0.094502829 0
-18.449493 2.6531129 -0.18308917 0
-18.611773 5.3903575 -0.18013315 0
-18.553333 10.727749 -0.22473462 0
-18.560791 10.913851 -0.17477873 0
-18.526377 14.985691 -0.18275274 0
-18.546997 -8.2028332 0.32805622 0
-18.649214 -0.2399148 0.23146187 0
-18.594076 5.403666 0.19200557 0
-18.589029 10.755538 0.16276984 0
-18.568892 10.910757 0.22676608 0
-18.527426 15.006514 0.20300519 0
-18.537109 5.4020276 0.58982694 0
-18.543764 10.740672 0.46176663 0
-18.511967 15.01521 0.59122097 0
-18.077385 2.6688495 -0.95616221 0
-18.08696 10.784959 -0.91545039 0
-18.168877 10.877392 -0.92358494 0
-18.251146 14.876014 -0.97696829 0
-18.070156 2.6936634 -0.41443771 0
-18.225409 5.4152942 -0.50472003 0
-18.240562 10.757912 -0.49810314 0
-18.171804 10.859763 -0.57730126 0
-18.244762 14.88835 -0.59795523 0
-18.199512 -0.2366221 -0.10012889 0
-18.195848 2.6188588 -0.14947483 0
-18.186827 5.3708882 -0.17631838 0
-18.17272 10.765503 -0.12491801 0
-18.224321 10.894506 -0.17487001 0
-18.223228 14.901444 -0.20083006 0
-18.200523 -8.2521238 0.35494253 0
-18.23015 -0.24006502 0.27999189 0
-18.139776 2.643106 0.22248042 0
-18.170187 5.361475 0.19961528 0
-18.292358 10.714078 0.2287557 0
-18.177971 10.90871 0.22508729 0
-18.236099 14.93107 0.2027166 0
-18.194967 -0.24861553 0.59616238 0
-18.108118 2.6710625 0.56725818 0
-18.274136 10.677902 0.59237814 0
-18.233082 14.955101 0.57844096 0
-17.844311 10.7254 -0.89555663 0
-17.768431 10.890255 -0.91772521 0
-17.812256 14.868007 -0.9949702 0
-17.861017 10.741735 -0.63385457 0
-17.72731 10.860413 -0.58126163 0
-17.781826 14.907999 -0.5900116 0
-17.828129 -0.29618165 -0.023703046 0
-17.804386 2.6268191 -0.12947662 0
-17.834112 5.4459205 -0.16144723 0
-17.790655 10.739453 -0.14840607 0
-17.791065 10.907827 -0.20457478 0
-17.803314 14.917082 -0.20379634 0
-17.835518 -8.2328768 0.33043796 0
-17.785324 -0.24189025 0.29247046 0
-17.799797 2.620388 0.22316636 0
-17.826809 5.4218884 0.19559214 0
-17.845882 10.748705 0.17911066 0
-17.76465 10.905525 0.22840811 0
-17.803928 14.929397 0.19730777 0
-17.789061 2.6329067 0.58277917 0
-17.440609 10.752642 -0.91314858 0
-17.339962 10.857442 -0.94191617 0
-17.407209 14.86022 -0.98527294 0
-17.490828 5.4493427 -0.53669566 0
-17.456528 10.736797 -0.64324898 0
-17.361149 10.842952 -0.57072169 0
-17.393297 14.892475 -0.60649842 0
-17.49691 -0.28639448 -0.052710429 0
-17.366238 2.6055431 -0.16854934 0
-17.40276 10.74245 -0.19867045 0
-17.374458 10.889787 -0.20216629 0
-17.380575 14.903428 -0.21436504 0
-17.388031 -0.24319585 0.29876155 0
-17.409243 2.5761626 0.20975727 0
-17.354765 5.4646902 0.16137639 0
-17.346483 10.75087 0.1652606 0
-17.38324 10.888015 0.21730943 0
-17.381353 14.934448 0.19849995 0
-17.390436 -0.24545322 0.57846612 0
-17.396049 2.5820842 0.5839197 0
-17.375881 14.963748 0.59793037 0
-17.069178 5.2725506 -0.8409279 0
-16.959368 10.745591 -0.97587651 0
-16.940422 10.861024 -0.91738468 0
-17.019657 14.890529 -0.92658001 0
-17.106707 5.3849487 -0.52050424 0
-17.075102 10.736853 -0.65466607 0
-16.963215 10.845219 -0.59500688 0
-16.982622 14.894972 -0.60906619 0
-16.960976 -0.31501752 -0.052426025 0
-16.958666 2.6130579 -0.11216225 0
-17.043226 5.3875642 -0.21776511 0
-17.05669 10.745054 -0.20193 0
-16.979397 10.87939 -0.19101955 0
-16.98517 14.906061 -0.22520235 0
-17.014465 -8.1590919 0.33186829 0
-16.969454 -0.22482683 0.25243932 0
-16.949242 2.5860791 0.21952119 0
-17.052238 5.3619976 0.20063081 0
-17.038595 10.712526 0.18454239 0
-16.991247 10.881828 0.20954791 0
-16.994904 14.924524 0.19039986 0
-17.002871 -0.24524793 0.57458007 0
-16.929663 2.6155622 0.58247709 0
-16.953693 10.906878 0.57662821 0
-16.992056 14.961213 0.5974865 0
-16.604017 10.735889 -0.94317406 0
-16.561987 10.864324 -0.9384262 0
-16.593084 14.868066 -0.93525219 0
-16.574917 5.3592567 -0.48746487 0
-16.588552 10.751438 -0.66480505 0
-16.595449 10.832906 -0.55220163 0
-16.602102 14.878073 -0.61584729 0
-16.685711 -0.27369511 -0.040312104 0
-16.746504 2.6692877 -0.11980205 0
-16.636475 5.3769341 -0.22169341 0
-16.594778 10.759713 -0.1933759 0
-16.606501 10.889979 -0.25073269 0
-16.595837 14.910583 -0.22582224 0
-16.610798 -0.23342189 0.25819385 0
-16.719011 2.6858897 0.21408896 0
-16.621666 5.3487792 0.19238928 0
-16.586361 10.75201 0.1617409 0
-16.604433 10.877644 0.2028251 0
-16.595543 14.93554 0.20076227 0
-16.600246 -0.25839421 0.5955413 0
-16.588354 10.73487 0.57703722 0
-16.629154 10.911708 0.58747524 0
-16.611042 14.957292 0.57244223 0
-16.282019 10.727232 -0.93683672 0
-16.208517 10.873846 -0.96870106 0
-16.206154 14.895675 -0.95002776 0
-16.240431 5.3839965 -0.49599683 0
-16.310175 10.755708 -0.55709428 0
-16.191158 10.857131 -0.64325958 0
-16.165407 14.887053 -0.61265939 0
-16.177109 -0.2618151 -0.03184028 0
-16.321348 2.6452234 -0.17163244 0
-16.202251 5.3672814 -0.19867429 0
-16.278769 10.755439 -0.22273546 0
-16.210939 10.870061 -0.20611313 0
-16.193434 14.915852 -0.2146813 0
-16.251308 -8.2211494 0.33359677 0
-16.231028 -0.23507074 0.30002046 0
-16.232792 5.3455338 0.19642793 0
-16.189274 10.760039 0.17591308 0
-16.228035 10.890711 0.19920422 0
-16.196064 14.952774 0.21786527 0
-16.304377 -8.1680326 0.59108025 0
-16.219543 -0.26059067 0.57935476 0
-16.283213 10.739984 0.59730488 0
-16.226486 10.902102 0.5959112 0
-15.818091 10.6982 -0.99672508 0
-15.796762 10.892496 -0.9727208 0
-15.800027 14.872221 -0.95441359 0
-15.755428 5.4426413 -0.52184427 0
-15.834958 10.708725 -0.61320549 0
-15.76777 10.856078 -0.60553861 0
-15.784437 14.883034 -0.6063869 0
-15.776988 -0.29277268 -0.039548624 0
-15.822159 2.5410733 -0.094559364 0
-15.79226 5.3622637 -0.16703765 0
-15.810524 10.726213 -0.21316433 0
-15.809314 10.868105 -0.21768883 0
-15.803372 14.913718 -0.2212586 0
-15.776882 -0.2354611 0.3065505 0
-15.732546 2.6218078 0.24097975 0
-15.844728 5.339478 0.21072817 0
-15.769136 10.710935 0.15123014 0
-15.83017 10.869088 0.16637182 0
-15.799245 14.942705 0.21610527 0
-15.801939 -0.27060646 0.59813499 0
-15.795941 10.734863 0.53642368 0
-15.807166 10.895273 0.58588284 0
-15.407883 14.868068 -0.9343276 0
-15.408358 10.759727 -0.67423737 0
-15.371991 10.841663 -0.58818799 0
-15.38563 14.891275 -0.59008396 0
-15.410256 -0.27300081 -0.037141602 0
-15.435954 2.6380072 -0.17294729 0
-15.363765 5.3310184 -0.22241369 0
-15.401053 10.762317 -0.27648243 0
-15.395083 10.861288 -0.21542613 0
-15.406402 14.906114 -0.15298171 0
-15.418158 -0.2725313 0.25907901 0
-15.24247 2.3576217 0.31560886 0
-15.405828 2.585561 0.17714678 0
-15.41319 5.3338318 0.15022162 0
-15.422155 10.740964 0.1663368 0
-15.424133 10.875946 0.16204312 0
-15.40663 14.928774 0.24061534 0
-15.364635 10.744181 0.56679314 0
-15.412387 14.94592 0.59331793 0
-15.054032 10.89311 -0.97013813 0
-14.972474 14.896084 -0.95117462 0
-15.059253 5.3548155 -0.4674114 0
-15.039083 10.703707 -0.67388552 0
-14.978014 10.857258 -0.61523223 0
-15.004615 14.889935 -0.58429044 0
-15.086966 -0.2767148 -0.057871491 0
-15.047636 2.6249535 -0.12985267 0
-14.985456 5.3051815 -0.15747291 0
-15.011955 10.74226 -0.30988216 0
-15.007432 10.875442 -0.21648422 0
-14.99429 14.911913 -0.16428037 0
-14.97287 -0.2937119 0.28954163 0
-14.979321 2.3611956 0.23276871 0
-14.980711 2.5944159 0.21910289 0
-15.003857 5.3248935 0.21000208 0
-15.007378 10.732673 0.16456114 0
-15.035454 10.871022 0.17070591 0
-15.005329 14.935464 0.21138573 0
-14.958146 10.72486 0.54914641 0
-15.032467 10.903519 0.57385242 0
-14.575353 2.6490557 -0.99916428 0
-14.598917 10.745806 -0.97482854 0
-14.591078 10.893862 -0.99944675 0
-14.583183 14.874146 -0.95567244 0
-14.72448 2.4982395 -0.40590823 0
-14.539855 5.3762183 -0.51247942 0
-14.579131 10.767828 -0.66079074 0
-14.54744 10.84978 -0.57658482 0
-14.59394 14.88466 -0.57623971 0
-14.686325 -0.28819036 -0.081430174 0
-14.530728 2.4664788 -0.19574451 0
-14.633942 5.3079529 -0.15556717 0
-14.560845 10.757646 -0.21147093 0
-14.590379 10.851573 -0.23100369 0
-14.570406 14.903662 -0.18096699 0
-14.546847 -8.2174635 0.28693762 0
-14.562366 -0.29010361 0.31249627 0
-14.551504 2.5622051 0.19442032 0
-14.611536 5.3421087 0.19597295 0
-14.549509 10.751352 0.20184004 0
-14.582729 10.868548 0.17466146 0
-14.576975 14.938307 0.20707047 0
-14.621178 5.3800049 0.59704381 0
-14.183527 14.875717 -0.95438153 0
-14.388565 2.7483444 -0.44722271 0
-14.092209 5.4059377 -0.47216353 0
-14.173315 10.768618 -0.61682856 0
-14.118604 10.870695 -0.54719049 0
-14.202742 14.88779 -0.56590229 0
-14.164851 -0.30226097 -0.023381034 0
-14.118912 5.2729383 -0.17430766 0
-14.179441 10.734899 -0.2121305 0
-14.198442 10.84996 -0.18819001 0
-14.174114 14.913408 -0.16691451 0
-14.14311 -8.1630869 0.31433621 0
-14.213165 -0.27686173 0.3171989 0
-14.319202 2.6510537 0.18242192 0
-14.143126 5.3697329 0.19234096 0
-14.20636 10.720128 0.20208964 0
-14.184183 10.860915 0.22111459 0
-14.201522 14.931756 0.22555225 0
-14.136563 5.3704877 0.5997352 0
-14.183765 10.884733 0.59780544 0
-13.792542 10.74169 -0.98827827 0
-13.802691 14.871312 -0.98669541 0
-13.723357 5.406652 -0.52568513 0
-13.781769 10.742053 -0.54201478 0
-13.759281 10.84416 -0.56514853 0
-13.796266 14.890597 -0.57702053 0
-13.71349 -0.31421664 -0.16144466 0
-13.813293 5.3822145 -0.198716 0
-13.799563 10.757903 -0.21969143 0
-13.809695 10.844599 -0.20309116 0
-13.798581 14.912558 -0.16057687 0
-13.776409 -8.2323713 0.29051575 0
-13.78775 -0.28993064 0.27438226 0
-13.735577 2.4691358 0.056288004 0
-13.903996 5.3568025 0.21143904 0
-13.81836 10.716241 0.18481489 0
-13.794675 10.854341 0.20546725 0
-13.787476 14.925918 0.22451103 0
-13.772682 10.700027 0.57918966 0
-13.797091 10.881731 0.58093482 0
-13.810993 14.970561 0.57585037 0
-13.368893 10.748752 -0.95040387 0
-13.424417 14.866653 -0.92905903 0
-13.380898 10.745773 -0.59932101 0
-13.406977 10.859974 -0.57768953 0
-13.409309 14.879561 -0.58665472 0
-13.494066 -0.33044726 -0.15838955 0
-13.37534 2.5518577 -0.1451337 0
-13.470064 5.286478 -0.1068843 0
-13.409151 10.738573 -0.20585722 0
-13.372776 10.841369 -0.18512899 0
-13.390733 14.900508 -0.17236659 0
-13.427135 -8.2201958 0.26495689 0
-13.402693 -0.27907032 0.2378891 0
-13.354226 2.5137184 0.24615063 0
-13.357239 5.4280758 0.14474016 0
-13.353827 10.73038 0.18751024 0
-13.372674 10.87676 0.24409062 0
-13.411922 14.925719 0.20470533 0
-13.447005 5.4107747 0.5694471 0
-13.390038 10.709294 0.58402967 0
-12.985744 10.742369 -0.90547287 0
-13.014956 10.864154 -0.99146622 0
-13.040254 14.885297 -0.945315 0
-12.807034 2.6339362 -0.44007346 0
-12.865295 5.4251032 -0.62473518 0
-12.984435 10.758473 -0.53366429 0
-12.974291 10.851068 -0.58414453 0
-13.040078 14.890173 -0.57255548 0
-12.849577 -0.36546087 -0.057586074 0
-12.818678 2.5337994 -0.071891904 0
-12.94636 5.3418832 -0.15122414 0
-12.996007 10.742208 -0.19044088 0
-13.000509 10.841553 -0.2032174 0
-13.013042 14.913312 -0.1775932 0
-12.929257 -8.2262192 0.23067978 0
-13.014936 -0.31256068 0.26047215 0
-12.907979 2.5262644 0.17315276 0
-12.932735 5.3982463 0.20961566 0
-13.019221 10.71396 0.18804367 0
-12.982052 10.855056 0.17509967 0
-13.024336 14.921815 0.19120865 0
-12.905624 2.5342512 0.54508227 0
-12.944556 5.4349513 0.5747543 0
-13.047441 10.711049 0.59696376 0
-12.967856 10.873313 0.58733541 0
-13.001825 14.952053 0.56741053 0
-12.625886 10.713089 -0.96157336 0
-12.630961 14.907065 -0.96955657 0
-12.421578 15.743465 -0.88281929 0
-12.499544 16.620441 -0.99158859 0
-12.493633 17.000687 -0.94213223 0
-12.476114 17.370653 -0.97605664 0
-12.491302 17.770147 -0.93132246 0
-12.489906 18.181173 -0.91875917 0
-12.478608 18.534746 -0.95127898 0
-12.47854 18.977634 -0.98382998 0
-12.518644 21.001017 -0.95636296 0
-12.638921 10.754076 -0.57562822 0
-12.604612 10.834921 -0.50276339 0
-12.600803 14.903014 -0.59054714 0
-12.453337 15.509695 -0.61268228 0
-12.416198 15.847733 -0.62291533 0
-12.421453 16.349977 -0.67180008 0
-12.477442 16.615835 -0.60417295 0
-12.478483 17.006777 -0.55894732 0
-12.46529 17.418114 -0.55183256 0
-12.478754 17.792976 -0.54628253 0
-12.453135 18.213215 -0.54000288 0
-12.529099 18.594339 -0.54975212 0
-12.479907 19.048006 -0.58659369 0
-12.472438 19.308527 -0.62619817 0
-12.535925 20.458752 -0.55052125 0
-12.528702 21.044086 -0.61929435 0
-12.491 21.27865 -0.58846772 0
-12.530909 -0.38059038 -0.14890908 0
-12.734989 2.6237659 -0.10049766 0
-12.728695 5.4686275 -0.25709414 0
-12.630517 10.737323 -0.21552986 0
-12.576862 10.848809 -0.14215004 0
-12.623294 14.932031 -0.1847643 0
-12.420736 15.561731 -0.1819659 0
-12.41096 15.810427 -0.20244384 0
-12.433946 16.34631 -0.11610866 0
-12.460747 16.607014 -0.22561479 0
-12.47514 17.010941 -0.14314668 0
-12.464802 17.391747 -0.17136291 0
-12.47165 17.812267 -0.14335793 0
-12.490635 18.215033 -0.1477388 0
-12.514193 18.595905 -0.12615009 0
-12.454445 19.054083 -0.18434493 0
-12.460477 19.304583 -0.13770545 0
-12.484162 20.159861 -0.082673833 0
-12.532357 20.578896 -0.072881132 0
-12.542912 20.967405 -0.079006344 0
-12.449219 21.283228 -0.11742061 0
-12.623075 -8.1916647 0.28995404 0
-12.61294 -0.31015903 0.25620142 0
-12.746389 2.5688052 0.23094723 0
-12.742794 5.3307538 0.15504377 0
-12.626307 10.730948 0.19143189 0
-12.634563 10.849787 0.22077133 0
-12.60726 14.948913 0.21677835 0
-12.413828 15.518703 0.29494411 0
-12.454893 16.227022 0.22351579 0
-12.458817 16.623499 0.21403754 0
-12.490775 17.025442 0.21646698 0
-12.469498 17.412315 0.18383959 0
-12.471674 17.79048 0.25468999 0
-12.516617 18.168072 0.27024168 0
-12.506591 18.606852 0.2621749 0
-12.456434 18.983757 0.27783638 0
-12.50282 19.261639 0.2311988 0
-12.452046 20.509474 0.1475635 0
-12.744678 5.3522577 0.55984318 0
-12.618129 10.688184 0.58404678 0
-12.61497 10.88308 0.59282458 0
-12.615901 14.981662 0.56219602 0
-12.539152 19.275249 0.59779155 0
-12.480506 20.25074 0.4585557 0
-12.525946 20.674789 0.41178739 0
-12.482045 21.275938 0.4415586 0
-12.101288 0.75136137 -0.92087281 0
-12.101272 5.4175401 -0.96658611 0
-12.110203 5.8065972 -0.94716126 0
-12.088613 6.2369804 -0.95949376 0
-12.074389 6.6100993 -0.92628747 0
-12.137273 6.9744782 -0.97114146 0
-12.076326 7.4139528 -0.93552226 0
-12.08059 7.7212815 -0.99899817 0
-12.101251 8.5980291 -0.97605795 0
-12.090247 9.01723 -0.9531607 0
-12.061569 9.3889122 -0.95412964 0
-12.084073 9.7903566 -0.95465302 0
-12.078537 10.224974 -0.95316553 0
-12.122536 10.623996 -0.9523527 0
-12.194456 14.959311 -0.97279817 0
-12.162786 15.389777 -0.96091026 0
-12.159432 15.799185 -0.93896681 0
-12.22929 16.580338 -0.94143605 0
-12.20065 17.405436 -0.94768316 0
-12.219087 17.816513 -0.95013314 0
-12.283747 18.180618 -0.96164197 0
-12.24369 18.571505 -0.95402563 0
-12.25183 19.026628 -0.97729605 0
-12.230728 19.372124 -0.98288137 0
-12.218946 19.768141 -0.94723916 0
-12.285238 20.280811 -0.93596566 0
-12.140045 20.755091 -0.94165993 0
-12.199224 21.354763 -0.98823452 0
-12.085899 -0.3386569 -0.5908106 0
-12.210007 0.21305394 -0.40257472 0
-12.073532 0.65784287 -0.58626163 0
-12.084796 1.0447414 -0.49295202 0
-12.181115 1.3655666 -0.43737784 0
-12.125411 1.7874417 -0.5918209 0
-12.192309 2.2975256 -0.41321969 0
-12.142373 2.5829368 -0.45674157 0
-12.103365 5.4641666 -0.58530068 0
-12.089782 5.8011537 -0.5740065 0
-12.091593 6.1700249 -0.56949759 0
-12.084785 6.6184669 -0.56315136 0
-12.069322 6.9723063 -0.58378118 0
-12.076617 7.4447861 -0.55695701 0
-12.104262 7.7316713 -0.58348942 0
-12.121141 8.2444038 -0.61531895 0
-12.080646 8.6125059 -0.58822715 0
-12.091268 9.0033417 -0.57640654 0
-12.073363 9.4067507 -0.58004659 0
-12.067481 9.8023472 -0.56688201 0
-12.082554 10.211958 -0.58586133 0
-12.101444 10.615747 -0.57477415 0
-12.173242 10.883275 -0.5808028 0
-12.18344 14.942714 -0.5939647 0
-12.172085 15.357394 -0.60269707 0
-12.250221 15.791107 -0.62612194 0
-12.21913 16.215717 -0.63918781 0
-12.251558 16.611605 -0.62931687 0
-12.23104 17.030153 -0.6284579 0
-12.261413 17.387938 -0.60106486 0
-12.291043 17.797436 -0.59302062 0
-12.274578 18.203306 -0.62427247 0
-12.255445 18.56703 -0.58383715 0
-12.254428 18.975231 -0.59834689 0
-12.2048 19.350744 -0.58812892 0
-12.256141 19.79635 -0.60551989 0
-12.195962 20.199778 -0.59023374 0
-12.188375 20.552582 -0.62261331 0
-12.135166 21.090944 -0.54726362 0
-12.204097 21.284044 -0.59456331 0
-12.136058 21.669796 -0.66531539 0
-12.200708 -0.24916118 -0.14317872 0
-12.156289 0.2187323 -0.15700975 0
-12.136221 0.6250276 -0.18755695 0
-12.132926 1.0251341 -0.17863587 0
-12.190829 1.4238701 -0.16651243 0
-12.169465 1.8087195 -0.20164107 0
-12.166491 2.2254426 -0.19283491 0
-12.179645 2.6529093 -0.20600794 0
-12.090022 5.4055352 -0.20308611 0
-12.075964 5.7983036 -0.18089315 0
-12.069425 6.1653085 -0.1992715 0
-12.074828 6.6280837 -0.17937401 0
-12.055346 6.9767017 -0.18937531 0
-12.050166 7.4262004 -0.16958785 0
-12.079064 7.7665429 -0.19122772 0
-12.101167 8.2187204 -0.18236539 0
-12.08564 8.5943661 -0.17043729 0
-12.091746 8.9994154 -0.18978903 0
-12.092767 9.4126167 -0.18410103 0
-12.088529 9.7813206 -0.17922349 0
-12.08426 10.199986 -0.17487285 0
-12.106023 10.626111 -0.18856055 0
-12.145316 10.866295 -0.19717605 0
-12.180634 14.939369 -0.1995865 0
-12.172299 15.37923 -0.19934501 0
-12.294662 15.816059 -0.19785249 0
-12.255801 16.243114 -0.21962886 0
-12.246342 16.586065 -0.21591637 0
-12.267584 17.010878 -0.1989378 0
-12.242303 17.400047 -0.21180843 0
-12.262148 17.804012 -0.21913461 0
-12.285652 18.224113 -0.19643758 0
-12.25388 18.581806 -0.20071883 0
-12.244268 18.992476 -0.18363449 0
-12.191722 19.3673 -0.19282368 0
-12.234699 19.762184 -0.17556427 0
-12.210927 20.214727 -0.20639229 0
-12.180942 20.544987 -0.23191261 0
-12.177436 21.006863 -0.18414304 0
-12.162218 21.325092 -0.18529107 0
-12.118896 21.676788 -0.16953896 0
-12.202761 -0.23684931 0.22114016 0
-12.199664 0.1598064 0.24361598 0
-12.129063 0.57591629 0.22818924 0
-12.13627 1.0010871 0.17773548 0
-12.168179 1.4326864 0.18830766 0
-12.168282 1.7994641 0.21232295 0
-12.158932 2.2300963 0.18436195 0
-12.148995 2.6403539 0.20391719 0
-12.079515 5.3975744 0.19342363 0
-12.083154 5.7766514 0.19993615 0
-12.083018 6.1934094 0.16821569 0
-12.08154 6.6321511 0.19731386 0
-12.080436 6.9652815 0.20475322 0
-12.09173 7.4395833 0.18536529 0
-12.062117 7.758256 0.17869471 0
-12.067321 8.2223682 0.19052647 0
-12.074401 8.5985451 0.19044568 0
-12.083328 9.0074186 0.19580911 0
-12.08093 9.3893089 0.18910068 0
-12.072769 9.7716131 0.19826333 0
-12.074209 10.21197 0.20726183 0
-12.096186 10.63922 0.21438399 0
-12.188424 10.871814 0.24600044 0
-12.177465 14.950762 0.20776771 0
