# .PCD v0.7 - Point Cloud Data file format
VERSION 0.7
FIELDS x y z intensity
SIZE 4 4 4 4
TYPE F F F F
COUNT 1 1 1 1
WIDTH 1401
HEIGHT 1
VIEWPOINT 0 0 0 1 0 0 0
POINTS 1401
DATA ascii
27.82505 15.366876 -0.29706484 0
27.788467 14.805758 -0.35346356 0
27.797531 14.629818 -0.19622992 0
27.791191 14.266806 -0.33457518 0
27.740383 3.6047893 -0.36430311 0
27.665346 3.3545277 -0.016623018 0
27.783783 2.9256344 -0.13792315 0
27.843952 2.7764134 -0.38878745 0
27.803829 2.1143596 -0.22652861 0
27.834351 1.3469141 -0.15762544 0
27.7279 -0.60509664 -0.025184207 0
27.78186 17.815117 0.0036325306 0
27.757114 17.455511 0.041919395 0
27.786261 15.763978 0.010616042 0
27.738625 15.364746 0.067010909 0
27.804876 14.899313 0.069864511 0
27.827372 14.522616 0.10249937 0
27.836441 14.307673 0.020435683 0
27.814764 2.153219 0.026101232 0
27.401363 3.6123257 -0.85424751 0
27.435278 18.125866 -0.71208322 0
27.512384 17.87044 -0.66024333 0
27.542311 17.509171 -0.70977128 0
27.454447 14.201824 -0.67282099 0
27.39547 13.702966 -0.67641944 0
27.315281 3.6885166 -0.45240721 0
27.432804 3.3724554 -0.55577493 0
27.454931 2.9733515 -0.66486663 0
27.473583 -0.67924219 -0.71024418 0
27.361521 -1.0276015 -0.69862819 0
27.435114 18.152178 -0.20085199 0
27.475407 17.832973 -0.19589069 0
27.536573 17.480515 -0.18787146 0
27.593719 14.407027 -0.29176962 0
27.405567 14.214799 -0.30368349 0
27.421837 13.811944 -0.30425948 0
27.321636 13.525984 -0.33922324 0
27.309372 3.6891208 -0.038513288 0
27.439896 3.3862832 -0.18922123 0
27.456867 2.9784205 -0.19477393 0
27.433161 -0.34835547 -0.031006791 0
27.470108 -0.66948843 -0.19077894 0
27.411573 -0.94330579 -0.097398132 0
27.410395 18.126486 0.035661932 0
27.544636 17.895773 0.16546373 0
27.446077 14.266126 0.067880936 0
27.416281 13.776085 0.16717219 0
27.327335 13.581257 0.003985256 0
27.386919 3.3339679 0.18473697 0
27.432623 2.9828107 0.12811187 0
27.455311 -0.69682717 0.03626157 0
27.387625 -0.90883696 0.033104062 0
27.080027 3.7818964 -0.87144208 0
27.099625 13.85811 -0.67261606 0
27.117249 13.453053 -0.67191291 0
27.111332 3.8361409 -0.44553584 0
26.928282 3.3857388 -0.4380087 0
27.138184 18.195585 -0.011531919 0
27.122038 13.85206 -0.27938241 0
27.043453 3.834358 -0.018123895 0
27.028671 3.3840127 -0.070364729 0
26.858463 -1.011039 -0.007343635 0
27.145538 13.851417 0.1150458 0
26.981888 3.386235 0.1260757 0
26.983477 -0.9923768 0.030343886 0
26.583935 3.8103004 -0.84284699 0
26.746239 13.87834 -0.65533453 0
26.790462 3.8177965 -0.43712884 0
26.530048 3.3877561 -0.41629755 0
26.6556 18.182468 -0.01793607 0
26.649422 17.882717 -0.02259063 0
26.744108 13.85096 -0.27342853 0
26.789968 3.8180497 -0.019957475 0
26.558319 3.3748047 -0.080051571 0
26.498781 -0.96840173 -0.11450369 0
26.47419 17.823936 0.020347103 0
26.680269 13.847054 0.10713769 0
26.518141 3.3514695 0.034059279 0
26.601725 -1.0109217 0.12771967 0
26.269056 3.4338396 -0.81078982 0
26.237381 13.879168 -0.63066274 0
26.198992 3.7832811 -0.42166537 0
26.288105 3.3901818 -0.41047651 0
26.192253 18.15778 -0.024006855 0
26.077278 17.900476 -0.027699612 0
26.196125 13.853771 -0.26487812 0
26.192154 3.7859344 -0.024203628 0
26.324427 3.4516025 -0.2059485 0
26.196709 -0.94607615 -0.16209032 0
26.132721 13.748734 0.066544093 0
26.262011 3.406461 0.16357991 0
26.314493 -1.0258057 0.1605074 0
25.722761 18.252356 -0.68662864 0
25.844097 17.908611 -0.61525172 0
25.710648 3.7584815 -0.59953713 0
25.847115 3.4462066 -0.77869064 0
25.682861 18.407171 -0.28554022 0
25.757227 18.200163 -0.20044245 0
25.788914 17.893227 -0.17556117 0
25.686239 13.507244 -0.0097905248 0
25.698273 3.7610619 -0.027661927 0
25.932888 3.3937917 -0.1497179 0
25.825661 -0.99660629 -0.13184582 0
25.629395 18.320885 0.14762881 0
25.300261 3.4192843 -0.81256461 0
25.493549 13.515162 -0.7177968 0
25.405725 3.4674988 -0.73730725 0
25.420973 18.215918 -0.16797008 0
25.214182 17.926081 -0.30683619 0
25.508972 13.663873 -0.14625505 0
25.424196 13.525947 -0.15275633 0
25.417646 3.4505558 -0.20964888 0
25.362955 -0.97058964 -0.094719067 0
25.431244 -1.0433227 0.19683135 0
24.978636 17.918474 -0.82956392 0
24.924444 13.536667 -0.80687511 0
25.075397 3.5080588 -0.84034407 0
24.983078 18.242662 -0.71920866 0
25.079929 17.927668 -0.55007839 0
24.989685 13.851982 -0.62095135 0
25.038544 13.536002 -0.55190957 0
24.827776 3.7382839 -0.73967797 0
24.999891 3.4689305 -0.63208121 0
24.984867 18.218973 -0.16145219 0
25.040964 17.909986 -0.025164766 0
24.985121 13.773132 -0.17029491 0
25.079926 13.53553 -0.10597365 0
24.821142 3.7302473 -0.38603526 0
24.993776 3.4826999 -0.17471245 0
25.009842 -1.0259553 -0.014926453 0
25.003429 13.850681 0.17337126 0
24.981365 13.535914 0.1966331 0
25.033295 3.450453 0.17166261 0
25.026039 -1.0210716 0.05645106 0
24.579931 3.4848068 -0.87894315 0
24.679846 18.218935 -0.71513087 0
24.411036 17.914742 -0.53151101 0
24.635296 13.874972 -0.61476529 0
24.631374 13.55323 -0.64982474 0
24.659149 3.4857719 -0.57188469 0
24.639723 18.233072 -0.16033885 0
24.764299 17.964869 -0.039211549 0
24.651384 13.864758 -0.25524655 0
24.45351 13.560227 -0.36711213 0
24.791954 3.7301905 -0.033766456 0
24.646606 3.4506967 -0.15388197 0
24.536169 -1.0285788 -0.039129149 0
24.653278 13.826152 0.16377749 0
24.464188 13.553444 0.1029838 0
24.616451 -1.0311728 0.040209174 0
24.252991 18.187979 -0.86612678 0
24.338264 3.5718219 -0.81869656 0
24.251133 18.203209 -0.6970396 0
24.345261 17.920546 -0.66370547 0
24.337982 13.877296 -0.63393837 0
24.239258 13.564049 -0.58357716 0
24.237318 3.6940582 -0.70500743 0
24.309252 3.4637439 -0.60648566 0
24.076586 -0.24416311 -0.60531044 0
24.054504 -0.58228993 -0.61285663 0
24.123333 -0.84823716 -0.63172388 0
24.344927 18.204559 -0.20862675 0
24.292938 17.88883 -0.12441931 0
24.298124 13.876708 -0.26168561 0
24.2432 3.6944075 -0.20457515 0
24.310804 3.5102651 -0.17422651 0
24.060278 0.20971055 -0.28295317 0
24.118868 -0.20414397 -0.1969534 0
24.073698 -0.58117819 -0.32679898 0
24.073225 -0.87812877 -0.21065415 0
24.053322 17.850315 0.18630575 0
24.308729 13.869887 0.15035965 0
24.185141 13.567244 0.096071452 0
24.275019 3.4707961 0.19165207 0
24.044813 -0.16136621 0.10112214 0
24.028786 -0.72463876 0.17444544 0
23.838467 18.148273 -0.65019935 0
23.803305 17.923435 -0.60856575 0
23.828644 16.029234 -0.59033948 0
23.808834 15.838792 -0.62894988 0
23.864664 15.250658 -0.60305822 0
23.895433 15.026663 -0.54466188 0
23.817446 14.457626 -0.56478733 0
23.790863 14.243989 -0.58465046 0
23.778769 13.810416 -0.60978258 0
23.800871 3.4314415 -0.63513291 0
23.790846 2.8859842 -0.61399961 0
23.853642 2.7756419 -0.63717473 0
23.831408 2.1255879 -0.62433237 0
23.789719 1.952896 -0.75491875 0
23.836704 1.3298382 -0.5988434 0
23.807434 1.0819199 -0.5570581 0
23.941534 -0.61213356 -0.71611232 0
23.803215 -0.96349627 -0.60723132 0
23.857513 18.151289 -0.20735967 0
23.901133 17.916824 -0.33203954 0
23.982462 17.358492 -0.13434973 0
23.941757 16.62801 -0.11772952 0
23.837532 16.03894 -0.26036626 0
23.806656 15.861652 -0.24863555 0
23.856419 15.262522 -0.25962821 0
23.879404 15.030644 -0.32295579 0
23.808479 14.451965 -0.21288991 0
23.769793 14.213571 -0.24182677 0
23.825619 13.809004 -0.21691884 0
23.80427 3.4453945 -0.20748548 0
23.795742 2.9251957 -0.20832655 0
23.825804 2.7723725 -0.22923966 0
23.821505 2.1291881 -0.23667693 0
23.752104 1.7964289 -0.35417789 0
23.849037 1.3373696 -0.20018825 0
23.920942 1.0880262 -0.098947681 0
23.932571 0.11642208 -0.048642486 0
23.927507 -0.10161543 -0.12405457 0
23.887247 -0.57713896 -0.24504472 0
23.832788 -0.93663621 -0.24668768 0
23.93714 17.768942 0.15609483 0
23.941202 17.410589 0.15474643 0
23.93321 17.062279 0.18645018 0
23.927904 16.634073 0.1586559 0
23.903986 16.145075 0.16962925 0
23.830965 15.805227 0.15684056 0
23.851322 15.331146 0.16892466 0
23.840185 14.530103 0.14131126 0
23.833746 13.816669 0.15416853 0
23.832867 3.4226367 0.19646992 0
23.799698 2.8703926 0.19529858 0
23.839245 2.1498365 0.19049032 0
23.851225 1.8427039 0.16452216 0
23.855459 1.3664676 0.17961653 0
23.942411 1.0215794 0.16399828 0
23.952129 0.63113278 0.17048241 0
23.964777 -0.17905192 0.15823196 0
23.957315 -0.64452016 0.16611455 0
23.847357 -0.93142164 0.13351347 0
23.498974 18.187458 -0.6709922 0
23.435995 13.833122 -0.64845932 0
23.373201 3.4395628 -0.61975425 0
23.424278 -1.0042698 -0.65831441 0
23.467148 18.226292 -0.26768053 0
23.54331 17.952682 -0.37414023 0
23.445465 13.801871 -0.22149186 0
23.579866 13.589448 -0.1376777 0
23.502789 3.6390693 -0.042485483 0
23.410124 3.3983974 -0.19440812 0
23.538029 -0.75417918 -0.061993524 0
23.376961 -0.97482985 -0.26697621 0
23.415533 18.187771 0.19399659 0
23.466726 17.948956 0.098379903 0
23.47991 13.771133 0.13969696 0
23.595327 13.578535 0.19030488 0
23.462027 3.4654391 0.12918779 0
23.394165 -0.96095538 0.1328298 0
23.03994 18.183462 -0.61208147 0
23.158684 17.970959 -0.7171768 0
23.040087 13.765873 -0.65446329 0
23.040083 3.4584219 -0.64676398 0
23.061375 -0.77337867 -0.45638055 0
23.02268 -0.95970148 -0.58873469 0
23.191879 -1.2151356 -0.53999639 0
23.023258 18.191708 -0.25057817 0
23.133854 17.9664 -0.35757533 0
23.025501 13.727727 -0.24144667 0
23.084618 3.6081436 -0.34139752 0
23.059464 3.4309967 -0.22538634 0
23.076944 -0.63224792 -0.3487801 0
22.937807 -0.97098511 -0.2271103 0
23.150475 17.965876 0.048845008 0
23.052383 13.739583 0.095804751 0
23.042854 3.4608142 0.15200631 0
23.092758 -0.77540797 0.065647408 0
22.968798 -0.98200268 0.10960895 0
22.64143 18.178246 -0.61551255 0
22.776405 17.972208 -0.72877163 0
22.660059 13.78941 -0.66531247 0
22.61165 3.4441299 -0.62262458 0
22.678356 -0.79172796 -0.43939394 0
22.583195 -0.98790514 -0.5771172 0
22.586294 18.196541 -0.19261825 0
22.61552 17.920315 -0.32547408 0
22.703659 13.802747 -0.27423462 0
22.658047 3.4245224 -0.19854543 0
22.572313 -0.62051135 -0.3431603 0
22.55418 -0.95895523 -0.2424123 0
22.770908 17.982529 0.039906144 0
22.666153 13.810206 0.087376527 0
22.698465 3.4491494 0.13928659 0
22.708981 -0.79424793 0.055814862 0
22.555265 -0.97707087 0.14238705 0
22.2451 18.113592 -0.57711309 0
22.266539 17.902681 -0.68039387 0
22.246075 13.818918 -0.6499393 0
22.24468 3.4514396 -0.65064925 0
22.197498 -0.93669015 -0.60927677 0
22.208521 -1.5649738 -0.4000231 0
22.183277 18.123259 -0.23477378 0
22.250694 17.938206 -0.29453748 0
22.295328 13.79549 -0.30181375 0
22.245007 3.4211032 -0.2005607 0
22.169676 -0.64733505 -0.34309545 0
22.195831 -0.96983206 -0.26229262 0
22.28196 17.873007 0.09056548 0
22.246227 13.82262 0.14785263 0
22.238352 3.4359977 0.11593898 0
22.182337 -0.97084481 0.15139221 0
21.800232 18.145357 -0.59238291 0
21.880276 17.900255 -0.69418484 0
21.790737 13.816029 -0.62551999 0
21.796537 3.4392049 -0.65543228 0
21.832989 -0.96417022 -0.61375761 0
21.815441 18.154211 -0.32015315 0
21.847479 17.901455 -0.33464146 0
21.860067 13.81333 -0.2709662 0
21.813505 3.4264894 -0.26046458 0
21.795401 -0.68539619 -0.33637345 0
21.829029 -0.95540798 -0.2412452 0
21.775158 -1.5389442 -0.39600223 0
21.781084 18.150557 0.19519803 0
21.855228 17.897549 0.08090499 0
21.832447 13.798182 0.17613018 0
21.773138 3.4264009 0.1624029 0
21.828405 -0.98123908 0.14649247 0
21.41964 18.212715 -0.58550525 0
21.486893 17.930485 -0.6676141 0
21.39798 13.792445 -0.65400517 0
21.482679 3.4296534 -0.66562897 0
21.449453 -1.0225562 -0.61012316 0
21.312971 -1.2204132 -0.54249114 0
21.42828 18.204771 -0.19783369 0
21.491203 17.91861 -0.24260889 0
21.401443 13.83677 -0.31228095 0
21.4722 3.4151051 -0.25020981 0
21.427553 -1.0198596 -0.22883496 0
21.464943 -1.5393009 -0.39327174 0
21.42275 13.826218 0.17184515 0
21.439247 3.4212241 0.12628354 0
21.43395 -1.0159618 0.16621611 0
21.039646 18.293362 -0.57543904 0
21.039942 13.850067 -0.65967959 0
21.047792 3.4186826 -0.7254287 0
21.006294 -1.1047111 -0.58811265 0
20.945719 -1.225925 -0.64444977 0
21.01025 18.281162 -0.21715121 0
20.965425 13.850976 -0.28724179 0
21.075846 3.420429 -0.27310368 0
20.971619 -1.0723559 -0.26698536 0
21.163548 -1.5362854 -0.39061975 0
20.982037 13.844864 0.11835959 0
20.988565 3.4135857 0.17299058 0
21.047462 -1.0999683 0.17080618 0
20.415495 -1.2677801 -0.80467147 0
20.535732 18.201645 -0.56985068 0
20.509546 17.955027 -0.62512165 0
20.60013 13.872342 -0.6612767 0
20.536242 3.4255791 -0.67878926 0
20.51362 -0.99901319 -0.62322897 0
20.671768 -1.2042229 -0.55850768 0
20.527525 18.198017 -0.18174151 0
20.489883 17.958183 -0.26869985 0
20.583084 13.875498 -0.22589573 0
20.603985 3.4208136 -0.24864075 0
20.513199 -0.98984373 -0.22766307 0
20.647873 -1.6467247 -0.38692605 0
20.515062 17.951027 0.15522105 0
20.559935 13.856119 0.1417854 0
20.652876 3.4205406 0.17949077 0
20.541574 -0.99859184 0.19533072 0
20.185268 18.155836 -0.59014803 0
20.393917 17.975258 -0.69779086 0
20.100349 14.112834 -0.61820024 0
20.143904 13.925171 -0.68423933 0
20.132204 3.2219348 -0.63433838 0
20.107641 3.1680276 -0.6303677 0
20.16147 -0.97813952 -0.67054009 0
20.230045 18.172642 -0.21718825 0
20.397028 17.975336 -0.2941778 0
20.115149 14.104652 -0.23051946 0
20.181105 13.91729 -0.23859453 0
20.151541 3.2345719 -0.20749471 0
20.098701 3.1690545 -0.240421 0
20.286726 -0.66453934 -0.32964435 0
20.173615 -0.96398902 -0.25579917 0
20.083397 -1.5007782 -0.3811326 0
20.393639 17.971912 0.10406384 0
20.101068 14.085194 0.16918819 0
20.123617 13.927589 0.18356739 0
20.165859 3.2330861 0.134385 0
20.18903 -0.98461068 0.15286407 0
19.603598 13.537737 -0.84557134 0
19.60778 10.055324 -0.87678468 0
19.841316 18.165123 -0.61042714 0
19.788698 14.082316 -0.67823982 0
19.886044 13.916205 -0.65905368 0
19.634617 12.940924 -0.56569785 0
19.635336 12.619922 -0.55365747 0
19.628839 12.214616 -0.56248003 0
19.601061 11.628634 -0.71103132 0
19.606216 11.501845 -0.74259496 0
19.608969 6.4189425 -0.40206501 0
19.645468 4.9890084 -0.55384547 0
19.648037 4.572144 -0.60127443 0
19.649307 4.2283483 -0.55055952 0
19.629049 3.733942 -0.41593888 0
19.803795 3.2769876 -0.65670443 0
19.860956 3.1461172 -0.5838083 0
19.818729 -0.9786455 -0.64586711 0
19.798771 18.177872 -0.22305758 0
19.850027 14.070034 -0.26217979 0
19.800192 13.912745 -0.33039027 0
19.645948 13.35597 -0.31373039 0
19.628345 12.950119 -0.25265804 0
19.63056 12.625463 -0.3149111 0
19.62356 12.176709 -0.24974151 0
19.623487 8.1405563 -0.35412443 0
19.618519 6.4255857 -0.34947979 0
19.62047 5.7116857 -0.3332175 0
19.671579 5.3753991 -0.34548214 0
19.661898 4.9859223 -0.29263565 0
19.654556 4.5690055 -0.30006829 0
19.639801 4.2367339 -0.29409465 0
19.661421 3.7599628 -0.34118041 0
19.829155 3.2880051 -0.34900865 0
19.876526 3.1442208 -0.23031764 0
19.82597 -0.681633 -0.32942533 0
19.789541 -0.96839362 -0.25885332 0
19.85066 14.063028 0.10827718 0
19.600584 6.0611992 0.061822578 0
19.647226 4.9936752 0.1648201 0
19.656075 4.5794525 0.1836189 0
19.796976 3.2219374 0.14198552 0
19.829266 3.1530592 0.18237559 0
19.782841 -0.98665273 0.11502344 0
19.263863 18.638035 -0.89993989 0
19.206549 18.816711 -0.66828948 0
19.274811 18.614719 -0.60899925 0
19.41057 18.178982 -0.62453431 0
19.266111 17.72547 -0.59441394 0
19.339825 17.50848 -0.50547779 0
19.490847 14.07487 -0.59501922 0
19.490244 13.844499 -0.59120977 0
19.490602 13.400458 -0.57910717 0
19.505533 13.064707 -0.58016038 0
19.525444 12.585546 -0.58066475 0
19.50226 12.1564 -0.59409726 0
19.502512 11.833447 -0.55158037 0
19.507465 11.400272 -0.56277317 0
19.495296 10.992113 -0.57586318 0
19.496531 10.584269 -0.59491235 0
19.496346 10.175549 -0.6379813 0
19.478594 9.7069197 -0.65194428 0
19.492601 9.4004707 -0.65900075 0
19.516205 8.9338837 -0.49735239 0
19.48336 8.5751028 -0.54612398 0
19.427551 8.1946144 -0.57363451 0
19.437733 7.7513285 -0.5634712 0
19.265272 6.8918529 -0.6109814 0
19.454165 6.6699724 -0.54089081 0
19.447374 6.1834264 -0.48492545 0
19.469601 5.3286629 -0.64336282 0
19.487492 5.1276379 -0.58046049 0
19.520445 4.124074 -0.5664885 0
19.503929 3.8177783 -0.57436913 0
19.500082 3.3507226 -0.59050846 0
19.486149 3.1456883 -0.54777223 0
19.321777 -1.0231966 -0.62251151 0
19.229359 -1.2349253 -0.54508007 0
19.200064 18.800159 -0.34534246 0
19.272633 18.682959 -0.19241329 0
19.393709 18.194942 -0.20053737 0
19.272009 17.702354 -0.2089266 0
19.339603 17.50375 -0.11521898 0
19.494999 14.048101 -0.23427434 0
19.505085 13.814513 -0.30114323 0
19.498693 13.384644 -0.30058798 0
19.518629 13.055761 -0.30611968 0
19.572542 12.594011 -0.2622714 0
19.513737 12.169352 -0.2761901 0
19.507032 11.813958 -0.31096604 0
19.505037 11.386934 -0.28998193 0
19.491581 11.007673 -0.30430269 0
19.497622 10.600564 -0.28548479 0
19.491922 10.181573 -0.27126133 0
19.518667 9.7472124 -0.24904656 0
19.506918 9.3768692 -0.27124766 0
19.520927 8.9406748 -0.30297491 0
19.525341 8.6174259 -0.3185308 0
19.449989 8.1885958 -0.20908855 0
19.358116 7.7926035 -0.31980228 0
19.486389 7.3438654 -0.38252029 0
19.47411 6.9959168 -0.23689115 0
19.466143 6.6247935 -0.22314569 0
19.460659 6.200274 -0.25280124 0
19.490629 5.7906251 -0.19406833 0
19.430376 5.3544178 -0.17805026 0
19.446268 5.1214795 -0.2102318 0
19.580297 4.5175633 -0.26569209 0
19.520859 4.1113052 -0.26113495 0
19.502182 3.8015122 -0.32902566 0
19.495831 3.3669553 -0.3175399 0
19.480816 3.1437151 -0.23077942 0
19.289093 2.788559 -0.34718859 0
19.53664 -0.72422409 -0.3247149 0
19.341839 -1.0112413 -0.21798207 0
19.265474 -1.2839514 -0.28735235 0
19.384653 18.209038 0.18044595 0
19.517395 12.167155 0.19510596 0
19.46067 6.1691847 0.14614987 0
19.469173 5.7999125 0.16453719 0
19.423115 5.3724637 0.17916116 0
19.512106 4.1209083 0.19669272 0
19.507219 3.3761594 0.19929352 0
19.319498 -1.0220677 0.18352398 0
19.226328 -1.2191905 0.18508863 0
19.133469 18.938625 -0.59270018 0
19.121794 18.506844 -0.58020335 0
19.127279 18.197916 -0.57476497 0
19.143866 17.857365 -0.60814357 0
19.175266 17.594368 -0.70780116 0
18.89699 10.667786 -0.59544158 0
18.998917 9.2552166 -0.50775194 0
18.981897 8.4899988 -0.55248135 0
18.902193 8.2087278 -0.57049757 0
18.873152 7.3320608 -0.64430082 0
18.948818 6.9264283 -0.60415703 0
19.044493 6.7228346 -0.51455659 0
18.882425 6.1317005 -0.52293873 0
18.863544 5.803926 -0.54047143 0
18.876421 5.3452301 -0.55501783 0
19.015881 5.1801534 -0.60579407 0
19.060238 -1.1136433 -0.62501079 0
19.027521 -1.2204547 -0.65423203 0
19.1341 18.928453 -0.21524142 0
19.078123 18.485121 -0.19598691 0
19.115513 18.232508 -0.19623403 0
19.162483 17.761875 -0.19114031 0
18.969135 10.80496 -0.17526749 0
18.903166 10.669316 -0.21716689 0
18.855513 10.023075 -0.15435556 0
18.899277 9.2247572 -0.22721466 0
18.868368 8.4747734 -0.21840496 0
18.886684 8.1541281 -0.2770578 0
19.018295 7.623888 -0.3243838 0
19.055975 6.9178052 -0.16660707 0
18.987432 6.7123032 -0.2701112 0
18.940495 6.1485214 -0.35684517 0
18.901396 5.7733741 -0.33321154 0
18.887068 5.3466082 -0.33913249 0
18.949804 5.1791282 -0.3296032 0
19.038549 -1.0985274 -0.261556 0
18.955484 -1.2251226 -0.3137289 0
19.142323 18.905628 0.13057934 0
18.887533 10.675517 0.13287066 0
18.864853 10.022705 0.067006662 0
18.857866 9.2251654 0.17192753 0
19.023403 6.886281 0.13347399 0
19.025534 -1.1010138 0.17323139 0
18.915503 -1.2282283 0.17697835 0
18.400513 10.805994 -0.52672857 0
18.569613 10.675973 -0.61551219 0
18.448631 10.138694 -0.62460935 0
18.473778 9.8999815 -0.67636591 0
18.485676 9.2974339 -0.64930087 0
18.522505 9.0673656 -0.58693838 0
18.499664 8.5201654 -0.61530852 0
18.601698 8.1258421 -0.60206884 0
18.579155 7.8164859 -0.60748434 0
18.569754 7.3993711 -0.59643441 0
18.550566 6.9670234 -0.57020527 0
18.577583 6.7293367 -0.54802567 0
18.498972 6.1359034 -0.61455977 0
18.634344 5.8678684 -0.56086153 0
18.488926 5.2692595 -0.60073155 0
18.448103 5.1757798 -0.52117407 0
18.597219 -1.1048636 -0.61037201 0
18.630638 -1.2557764 -0.65792072 0
18.489212 10.614536 -0.17701447 0
18.510839 10.161146 -0.17896543 0
18.460108 9.829813 -0.19040971 0
18.464382 9.3535013 -0.17837821 0
18.508276 9.0270386 -0.212382 0
18.519234 8.5505419 -0.22015135 0
18.617943 8.141715 -0.21343586 0
18.581636 7.8210754 -0.29893675 0
18.585432 7.4295859 -0.27076229 0
18.558064 6.9806743 -0.26697019 0
18.570881 6.7254214 -0.27967024 0
18.460779 6.1672511 -0.25170213 0
18.493002 5.7646618 -0.21679874 0
18.462194 5.2877903 -0.20393328 0
18.444284 5.1612291 -0.20482296 0
18.580309 -1.0823742 -0.23806199 0
18.632513 -1.2171665 -0.28856891 0
18.621254 9.0895395 0.19355422 0
18.665056 8.5887461 0.16497587 0
18.598955 7.8288412 0.17689976 0
18.548536 6.9895763 0.1943655 0
18.599831 6.726017 0.19310865 0
18.444847 6.1469774 0.17085353 0
18.605068 -1.216795 0.1300662 0
18.338137 10.589533 -0.58168423 0
18.345343 10.19832 -0.59542972 0
18.345758 9.8074665 -0.61578548 0
18.329515 9.3579102 -0.61929917 0
18.31216 9.1572657 -0.59124553 0
18.297974 8.426568 -0.62897867 0
18.223234 8.2600451 -0.63924778 0
18.363705 6.1730008 -0.58106446 0
18.384117 5.2292805 -0.65348858 0
18.3615 5.1487632 -0.55100763 0
18.240915 -1.0089263 -0.60842437 0
18.391966 -1.2241738 -0.72230387 0
18.360155 10.576593 -0.31412205 0
18.351954 10.162073 -0.33963415 0
18.349564 9.840044 -0.31030419 0
18.336981 9.3591881 -0.33025435 0
18.30895 9.1073647 -0.31196469 0
18.288282 8.5519657 -0.34370339 0
18.375635 6.1345816 -0.22148488 0
18.374823 5.7310114 -0.17808418 0
18.383839 5.3297052 -0.19776919 0
18.36282 5.0997901 -0.26405114 0
18.250673 4.7510147 -0.32695904 0
18.234997 -1.0075382 -0.21767172 0
18.346903 -1.207672 -0.17330317 0
18.360931 9.8267498 0.083565399 0
18.356192 9.3189678 0.022664204 0
18.273586 9.1738625 0.0056301504 0
18.366493 5.7085338 0.15553333 0
18.379965 5.3696599 0.13120756 0
18.37735 5.138906 0.16919482 0
18.216177 -1.0065478 0.19034036 0
18.351074 -1.2150127 0.19721031 0
17.711973 18.14201 -0.59801584 0
17.6793 17.748672 -0.62037748 0
17.603743 17.59478 -0.47984689 0
17.827118 -1.0176595 -0.61628014 0
17.759436 18.522232 -0.32652164 0
17.72039 18.165188 -0.26047361 0
17.696716 17.753326 -0.25779679 0
17.798258 17.494877 -0.25988075 0
17.801332 -1.0011202 -0.24540627 0
17.772083 18.412699 0.1634012 0
17.724888 18.141588 0.17436799 0
17.698402 17.762001 0.17713954 0
17.832573 -1.015471 0.18353681 0
17.440334 18.164362 -0.59349293 0
17.412525 -1.0209181 -0.63184071 0
17.416519 18.160957 -0.26666278 0
17.345638 -0.72502899 -0.3103933 0
17.387348 -0.99280465 -0.24525216 0
17.411526 18.157906 0.18672842 0
17.421019 -1.0101626 0.17844534 0
16.980059 18.16238 -0.58514148 0
17.030638 -1.0103693 -0.6199072 0
17.002966 18.167965 -0.25356594 0
17.030338 -0.72693825 -0.31115493 0
16.988733 -0.99276686 -0.25159121 0
17.007238 -1.0134977 0.14799187 0
16.591564 18.162304 -0.5782482 0
16.438625 16.494093 -0.53890407 0
16.472576 16.242928 -0.60103518 0
16.503389 15.771908 -0.59243178 0
16.454329 8.9557247 -0.59180659 0
16.469791 8.6034412 -0.67503214 0
16.458796 8.2566833 -0.6061582 0
16.469038 1.735877 -0.78139627 0
16.450134 1.4939086 -0.58967435 0
16.463863 1.0150621 -0.64223725 0
16.457571 0.73956531 -0.5723117 0
16.597647 -1.0193955 -0.59083903 0
16.616734 18.177105 -0.22297226 0
16.434675 16.512859 -0.20819862 0
16.452328 16.182989 -0.28972641 0
16.456812 15.790091 -0.28223512 0
16.453373 8.9639196 -0.19930908 0
16.463465 8.6226444 -0.24636926 0
16.456837 8.2469912 -0.22680427 0
16.531532 1.655707 -0.27767318 0
16.475407 1.4491034 -0.20945403 0
16.479122 0.96050012 -0.20312378 0
16.462847 0.66840255 -0.17938286 0
16.710274 -0.72880268 -0.31083152 0
16.593742 -0.97959042 -0.2606681 0
16.442144 16.51041 0.17524679 0
16.459232 16.149418 0.14568107 0
16.444296 15.753359 0.1799452 0
16.459398 8.9634733 0.17401063 0
16.470037 8.5910988 0.18382777 0
16.459679 8.2360573 0.18812922 0
16.470068 1.4530482 0.1748046 0
16.466099 0.94401938 0.16657771 0
16.469555 0.67655575 0.11926965 0
16.594976 -1.016297 0.1639732 0
16.145119 18.509371 -0.88687962 0
16.203653 18.156778 -0.57992119 0
16.28587 16.49441 -0.64012575 0
16.157719 15.689625 -0.56517732 0
16.203897 9.0154438 -0.64773357 0
16.397205 8.7861633 -0.70890272 0
16.207708 8.200799 -0.66320103 0
16.168232 1.7369763 -0.72690809 0
16.25054 1.5333573 -0.60636353 0
16.2731 0.67789054 -0.61972731 0
16.217983 -0.99317247 -0.60285223 0
16.249117 18.165258 -0.26935056 0
16.251621 16.472315 -0.25041455 0
16.220446 15.681396 -0.25341401 0
16.220934 9.2194376 -0.25582406 0
16.204075 9.0110874 -0.22058271 0
16.269119 8.7098751 -0.28792906 0
16.248381 8.1967888 -0.29905972 0
16.195339 7.9124985 -0.3196671 0
16.196327 1.654774 -0.31059387 0
16.230955 1.4911423 -0.26941395 0
16.271671 0.66184795 -0.21348439 0
16.314949 -0.74110222 -0.30922002 0
16.213955 -1.0001189 -0.24934815 0
16.14472 -1.3839855 -0.34943032 0
16.209253 16.49157 0.14958082 0
16.209957 9.0041552 0.19920146 0
16.252193 8.2025366 0.13088788 0
16.257294 0.63995039 0.16140924 0
16.200243 -1.0311402 0.16491382 0
15.654641 18.500912 -0.86361659 0
15.811122 18.16279 -0.58342278 0
15.687818 16.487371 -0.6321252 0
15.682315 16.218904 -0.60225779 0
15.74264 15.731499 -0.56650519 0
15.728548 8.9649277 -0.62345213 0
15.69725 8.6050386 -0.60261643 0
15.746468 8.2503729 -0.60482669 0
15.837092 1.6868807 -0.70202982 0
15.738083 1.466318 -0.60950446 0
15.68874 0.93841904 -0.6235019 0
15.733397 0.7046687 -0.57694626 0
15.796576 -0.99716008 -0.63411909 0
15.679791 18.50424 -0.30020124 0
15.827744 18.176783 -0.2609953 0
15.695555 16.488962 -0.25323427 0
15.677779 16.219482 -0.29300678 0
15.721204 15.726886 -0.26598325 0
15.733105 8.959301 -0.26745003 0
15.708132 8.6253128 -0.30510634 0
15.729956 8.2425089 -0.28638104 0
15.718813 7.9194689 -0.3010636 0
15.93058 1.6755056 -0.28152525 0
15.761846 1.4496654 -0.26208127 0
15.690751 0.98949355 -0.29800758 0
15.702544 0.68141842 -0.2516529 0
15.794235 -0.7499795 -0.30715173 0
15.789165 -1.0020294 -0.25560343 0
15.824004 -1.3718548 -0.34704828 0
15.705125 16.48699 0.17181939 0
15.715356 0.66416711 0.14035757 0
15.776097 -1.0267651 0.13938354 0
15.392855 18.158964 -0.54068726 0
15.58007 16.451118 -0.73827255 0
15.580793 16.216679 -0.58879864 0
15.571157 15.789537 -0.66928303 0
15.592423 8.8060913 -0.55923331 0
15.595699 8.4043894 -0.57033294 0
15.587349 8.181016 -0.55774373 0
15.584797 1.4091635 -0.57286352 0
15.591473 1.1477699 -0.50497234 0
15.589962 0.75471002 -0.4392724 0
15.418841 -1.0238098 -0.62356794 0
15.419646 18.155682 -0.28250372 0
15.583207 16.294386 -0.23403029 0
15.58833 8.5000105 -0.24750943 0
15.583297 8.1723471 -0.2529932 0
15.593429 7.8656807 -0.28612196 0
15.5866 1.4176902 -0.18085827 0
15.552006 1.0518471 -0.25843608 0
15.559904 0.63930023 -0.16717221 0
15.392054 -0.75857258 -0.30564731 0
15.388062 -0.99772543 -0.2559835 0
15.398791 -1.3629551 -0.34402114 0
15.588398 16.197615 0.079749569 0
15.586691 1.4443058 0.19879268 0
14.99128 18.171289 -0.55477512 0
14.995186 -1.0250355 -0.62003887 0
14.831086 -1.285975 -0.43837374 0
15.004535 18.148314 -0.29118159 0
15.10409 -0.76639843 -0.3046326 0
14.997557 -0.99757189 -0.24829468 0
14.963143 -1.3535137 -0.34098417 0
14.597092 18.167654 -0.55963063 0
14.57081 -1.0088935 -0.62076968 0
14.598611 18.161869 -0.28410888 0
14.58296 -0.99612659 -0.2414217 0
14.672493 -1.2762523 -0.31642753 0
14.607593 18.17417 0.19619325 0
14.60516 -1.0224005 0.18788368 0
14.212456 18.169031 -0.58018154 0
14.223086 -1.0076976 -0.6243239 0
14.273561 -1.3553934 -0.56111455 0
14.201546 18.152163 -0.26476076 0
14.210764 -0.99731666 -0.23582312 0
14.277698 -1.2196131 -0.3315835 0
14.209132 -1.0127864 0.16062279 0
13.742304 18.214201 -0.56743813 0
13.802558 -1.0036023 -0.60141802 0
13.864774 -1.3178086 -0.60099286 0
13.758967 18.196318 -0.23175026 0
13.800865 -1.0058123 -0.23267996 0
13.933971 -1.2173656 -0.16344061 0
13.748011 18.194283 0.18836242 0
13.776311 -1.00852 0.19764365 0
13.272158 18.411192 -0.79653341 0
13.430273 18.299236 -0.57379884 0
13.380353 -0.99033296 -0.58635247 0
13.465245 -1.3164791 -0.64196688 0
13.279181 18.934647 -0.34979829 0
13.362829 18.470732 -0.23172829 0
13.44392 18.31251 -0.27550912 0
13.396013 -0.98342562 -0.22979762 0
13.333282 -1.2457019 -0.22706716 0
13.422099 18.311152 0.18043254 0
13.140055 18.400291 -0.59303367 0
12.987132 18.230581 -0.60117626 0
12.851415 1.4897219 -0.71880609 0
12.85407 1.0312307 -0.59953648 0
12.843972 0.69029778 -0.596165 0
12.95076 -0.98640537 -0.61768591 0
13.066053 -1.3189926 -0.67823505 0
13.066879 18.406815 -0.33753711 0
12.979531 18.233717 -0.24199679 0
12.882571 1.6663537 -0.27701157 0
12.862806 1.4286714 -0.22814289 0
12.836742 1.0793457 -0.2631667 0
12.840764 0.69962806 -0.3536109 0
13.041837 -0.78887177 -0.30127138 0
12.974855 -0.99250615 -0.24908735 0
13.144552 -1.2547581 -0.16653973 0
12.985843 18.228743 0.18245688 0
12.803991 16.228691 0.19767448 0
12.98713 -0.99698675 0.1927384 0
12.637958 18.160328 -0.57319134 0
12.638319 16.483973 -0.60007769 0
12.702283 16.218901 -0.62568384 0
12.654033 15.754315 -0.59117359 0
12.666071 1.4537092 -0.64948559 0
12.718087 0.97264093 -0.64725471 0
12.64437 0.69933414 -0.61207181 0
12.562787 -0.97102892 -0.61503744 0
12.631805 -1.3022928 -0.68413556 0
12.618103 18.679237 -0.34773812 0
12.614552 18.163233 -0.29081619 0
12.665819 16.479557 -0.23133685 0
12.691819 16.235279 -0.26731238 0
12.634121 15.731149 -0.28932506 0
12.646431 15.592957 -0.28157955 0
12.622795 1.6435047 -0.30367228 0
12.638861 1.4626338 -0.25512972 0
12.719416 0.97471774 -0.25724572 0
12.654869 0.6947996 -0.23136395 0
12.619988 -0.98927474 -0.2497912 0
12.676323 -1.285903 -0.2498146 0
12.639198 16.47892 0.17319179 0
12.71585 16.212313 0.17407301 0
12.720263 0.97630358 0.1715434 0
12.639193 0.70184344 0.17403047 0
12.220091 18.167524 -0.59100044 0
12.141606 16.498495 -0.64118624 0
12.002661 16.163837 -0.62679219 0
12.182741 15.707966 -0.557634 0
12.10812 15.393351 -0.67636067 0
12.158839 1.4874269 -0.69136572 0
12.034163 1.1112648 -0.56999737 0
12.139111 0.67479688 -0.63699293 0
12.150972 -0.97852761 -0.60493624 0
12.267498 -1.305742 -0.69606036 0
12.182605 18.851509 -0.36065742 0
12.136105 18.640856 -0.34327203 0
12.204686 18.158325 -0.27757141 0
12.129372 16.501575 -0.29692838 0
12.037189 16.352106 -0.22951198 0
12.152782 15.687596 -0.34189168 0
12.198882 15.550858 -0.31020197 0
12.176183 1.7029736 -0.26994401 0
12.176991 1.4625074 -0.26479548 0
12.124656 0.99805152 -0.28412238 0
12.191987 0.66675085 -0.27050614 0
12.186376 -0.97934145 -0.26268426 0
12.191281 -1.2903155 -0.27739161 0
12.132566 16.495918 0.15554652 0
12.030509 16.266081 0.1379247 0
12.176768 0.67346334 0.1669496 0
12.267449 -1.3015879 0.083861768 0
11.827454 18.162622 -0.58029872 0
11.921852 16.514473 -0.55199796 0
11.92588 16.201141 -0.6359275 0
11.937304 15.765478 -0.59947175 0
11.975464 15.593487 -0.74157727 0
11.94751 1.4181159 -0.62178844 0
11.935782 0.97877079 -0.62095791 0
11.947724 0.68217129 -0.59045297 0
11.790339 -0.98053199 -0.61611867 0
11.719043 -1.3020337 -0.68830353 0
11.789909 18.163485 -0.29045454 0
11.930344 16.503464 -0.21533708 0
11.941617 16.206482 -0.28435168 0
11.941147 15.75354 -0.27129126 0
11.882473 15.591289 -0.29300418 0
11.931814 1.4083253 -0.25725803 0
11.908263 0.99636841 -0.29950517 0
11.929422 0.70024019 -0.24336596 0
11.839701 -0.6519351 -0.20078228 0
11.802174 -0.98274863 -0.27196398 0
11.775041 -1.2764797 -0.3134836 0
11.935683 0.68916219 0.18110292 0
11.419309 18.172863 -0.57251465 0
11.35364 -0.61084974 -0.54006404 0
11.380996 -0.98457998 -0.6164856 0
11.409329 -1.3459133 -0.59199858 0
11.36797 18.88587 -0.35599092 0
11.38281 18.161596 -0.32154778 0
11.365868 -0.98143184 -0.27370146 0
11.328598 -1.3135172 -0.26274398 0
11.465001 -1.3419392 0.13276623 0
11.090818 18.191191 -0.54364312 0
10.943979 -0.78184819 -0.48364508 0
10.977797 -0.97879398 -0.63328028 0
11.032131 -1.3661137 -0.66257226 0
11.079528 18.185484 -0.25988451 0
10.943015 -0.78681648 -0.009682551 0
10.971964 -0.9905687 -0.26517707 0
11.049744 -1.3160833 -0.20058912 0
10.711226 -0.77168298 -0.86063939 0
10.616244 -0.97535461 -0.66584402 0
10.67221 -1.3837705 -0.69142258 0
10.428507 18.099411 -0.3960579 0
10.597473 -0.99581039 -0.29024911 0
10.584953 -1.3176916 -0.30052584 0
10.029545 18.639481 -0.89699769 0
10.048692 18.634741 -0.64408463 0
10.212684 18.181786 -0.57542109 0
10.106126 17.748262 -0.62479371 0
10.121291 17.541046 -0.59831589 0
10.202559 -0.99159223 -0.63693863 0
10.265972 -1.4026487 -0.64206356 0
10.147554 18.503319 -0.15600625 0
10.199487 18.165409 -0.28304991 0
10.11837 17.746506 -0.26440099 0
10.096298 17.503365 -0.20383626 0
10.109504 -0.79714882 -0.38734975 0
10.187865 -0.99899453 -0.2671431 0
10.220822 -1.3204865 -0.29309756 0
10.106455 17.74901 0.17962931 0
10.261797 -1.3984685 0.11210904 0
9.7927513 19.011875 -0.59954083 0
9.8308964 18.162909 -0.52489966 0
9.9259768 17.770811 -0.68575686 0
9.9988213 17.592903 -0.49866959 0
9.7631292 -0.78536415 -0.65320206 0
9.7928848 -1.002871 -0.64413655 0
9.8247404 -1.4246738 -0.68415195 0
9.7248411 18.957932 -0.25743765 0
9.8602142 18.708532 -0.33211511 0
9.811635 18.154026 -0.35459051 0
9.9096079 17.803526 -0.28128582 0
9.9783831 17.568365 -0.20348173 0
9.8010969 -0.78435659 -0.23889709 0
9.8014708 -0.99870706 -0.27398589 0
9.7502642 -1.3654007 -0.29282805 0
9.7193899 19.016182 0.15971039 0
9.9629536 17.547388 0.19380796 0
9.8284168 -0.78471231 0.19008511 0
9.8703022 -1.4167259 0.12893598 0
9.3766651 18.174698 -0.51378602 0
9.3926649 -1.0026392 -0.63814902 0
9.4464808 -1.4415414 -0.71991867 0
9.2681828 18.772655 -0.32160395 0
9.3989573 18.151182 -0.33335966 0
9.3902283 -0.99981576 -0.27542013 0
9.3842936 -1.3775529 -0.29332608 0
9.4118233 -1.4359262 0.14906587 0
9.0305319 18.165953 -0.55937308 0
9.0477276 -0.75208867 -0.51706564 0
9.0062971 -1.0011283 -0.60966009 0
9.0995359 -1.4571416 -0.7140128 0
8.995142 18.151186 -0.3277854 0
9.1568098 -0.75553548 -0.14669231 0
9.0078554 -1.0040171 -0.26797715 0
9.0062351 -1.3816863 -0.29840446 0
8.9813833 -1.4580069 0.16772592 0
8.5929527 18.172058 -0.54172176 0
8.640873 -1.0071557 -0.612997 0
8.5934572 -1.4847245 -0.67719042 0
8.5996752 18.158466 -0.33955038 0
8.5970907 -1.0079582 -0.27453059 0
8.5952253 -1.3557917 -0.3027629 0
8.2066946 18.192278 -0.54323697 0
8.3537979 -0.72655356 -0.59993446 0
8.2223177 -1.0022209 -0.66036105 0
8.2396908 -1.4996474 -0.70468956 0
8.184268 18.163321 -0.3453638 0
8.3530426 -0.72400796 -0.14715523 0
8.2085829 -1.0045868 -0.26508856 0
8.1801929 -1.385869 -0.30894718 0
7.8046241 18.183088 -0.55114353 0
7.7402167 -0.70010215 -0.63189697 0
7.8042264 -0.9969058 -0.65242004 0
7.7773876 18.162346 -0.34778449 0
7.7907286 -1.0031281 -0.27604315 0
7.9361882 -1.2354059 -0.26851997 0
7.3622017 19.009962 -0.57840759 0
7.4416165 18.185808 -0.55502129 0
7.3460274 -0.69196904 -0.48448527 0
7.3912745 -1.0020401 -0.64957255 0
7.4147415 18.955885 -0.27327204 0
7.375258 18.161699 -0.34880424 0
7.2395649 -0.68018591 -0.14783579 0
7.3975296 -1.0028291 -0.27249536 0
7.4207821 -1.2339064 -0.27822724 0
7.3922482 -0.68665993 0.18732962 0
7.1284151 18.860165 -0.61450505 0
6.9599457 18.539404 -0.60564077 0
6.9412413 18.182957 -0.57428807 0
6.9662871 17.761858 -0.61628062 0
7.0089636 17.549265 -0.58012533 0
7.0622883 -0.68065131 -0.4945046 0
7.0141492 -1.0091013 -0.61473465 0
6.9493604 18.506794 -0.15212785 0
6.9385386 18.182281 -0.27253273 0
6.9620523 17.767023 -0.27270925 0
7.0339799 17.518841 -0.25491405 0
6.9936824 -1.0014182 -0.26866901 0
6.9890461 -1.2166696 -0.26519451 0
6.9765649 17.765617 0.19016522 0
7.0245662 17.540487 0.18989694 0
6.7839026 18.243555 -0.58898705 0
6.5084114 17.841871 -0.41683793 0
6.5283008 -1.0197166 -0.64338571 0
6.5048256 -1.5584428 -0.67939651 0
6.7664986 18.170233 -0.3103433 0
6.5444212 -1.0204511 -0.2505452 0
6.5414338 -1.3329563 -0.26842007 0
6.070528 18.456882 -0.54233146 0
6.0819101 18.185263 -0.56653887 0
6.2100897 -1.0999579 -0.66243446 0
6.251554 -1.2588892 -0.76542169 0
6.0826616 18.408678 -0.33324102 0
6.0986986 18.179485 -0.2520203 0
6.2317138 -1.1024772 -0.26342118 0
6.1388059 -1.223735 -0.2349796 0
5.8253212 18.17185 -0.5801 0
5.6435194 17.97501 -0.61777306 0
5.7958837 -1.1417552 -0.6752972 0
5.7991738 -1.3291572 -0.69039851 0
5.8069758 18.159737 -0.28597248 0
5.7823224 -1.1358796 -0.25188655 0
5.8242903 -1.2803715 -0.25040084 0
5.71171 18.464821 0.15673922 0
5.6314054 17.970795 0.18135647 0
5.3442287 18.162533 -0.5872649 0
5.5564852 17.976727 -0.61230189 0
5.2081919 16.471855 -0.60186565 0
5.2019634 16.153942 -0.42699111 0
5.2194877 15.725977 -0.60043085 0
5.2257276 1.4145041 -0.62649924 0
5.2208648 0.96186364 -0.66296405 0
5.2319689 0.70959914 -0.6205501 0
5.4144511 -1.0262626 -0.65911359 0
5.3813534 18.155918 -0.28233489 0
5.5248938 17.970093 -0.28108352 0
5.2116122 16.476482 -0.24424906 0
5.2210469 16.204271 -0.33084473 0
5.2270412 15.77071 -0.26782265 0
5.2090101 1.6859869 -0.1521675 0
5.2464328 1.4171646 -0.24109596 0
5.2408671 0.98063248 -0.24230634 0
5.2352448 0.71730727 -0.23011674 0
5.4125185 -1.0402954 -0.24343108 0
5.4263496 -1.2756113 -0.29461712 0
5.4890471 17.966885 0.13200915 0
5.2303052 16.474024 0.1717779 0
5.2321615 0.70237535 0.19218494 0
5.0248399 1.4628266 -0.88378602 0
4.9735985 18.155899 -0.60177511 0
5.1744137 17.991774 -0.71507424 0
5.1090493 16.48395 -0.61273849 0
5.1558561 16.215961 -0.57113683 0
5.0941086 15.733635 -0.59763765 0
4.833117 1.7273886 -0.59084517 0
5.0792322 1.4580045 -0.73121518 0
5.1706877 0.99872732 -0.6217072 0
5.0630803 0.69433844 -0.61301279 0
5.0076737 -1.0116181 -0.6742382 0
4.9579725 18.471474 -0.30337542 0
5.0049982 18.167141 -0.28091407 0
5.1659765 17.99271 -0.33720395 0
5.0821443 16.492765 -0.2165733 0
5.1631303 16.256588 -0.2584931 0
5.078054 15.718803 -0.28242043 0
5.0190635 1.4699516 -0.25721687 0
5.170608 0.97668231 -0.20457867 0
5.0694141 0.68933386 -0.23755814 0
5.0086579 -1.0111337 -0.27304915 0
5.067668 -1.291863 -0.29272547 0
5.1433306 17.995457 0.16353965 0
5.0545144 16.483253 0.17220072 0
5.174264 16.182825 0.15326975 0
5.0734711 0.70259488 0.18362464 0
4.5839734 18.15917 -0.60940009 0
4.5527487 16.489298 -0.59963644 0
4.4882431 16.264267 -0.62724012 0
4.5319843 15.727923 -0.6124714 0
4.5288715 15.45371 -0.55496562 0
4.5305438 1.7288189 -0.64401925 0
4.5211873 1.4304113 -0.67583412 0
4.4686732 1.0238837 -0.63296896 0
4.5374985 0.68285024 -0.60773271 0
4.588841 -1.0084358 -0.69788963 0
4.5923748 18.469685 -0.3009271 0
4.5757051 18.164135 -0.2944319 0
4.5321174 16.488337 -0.22685996 0
4.4927168 16.249571 -0.26992565 0
4.5492806 15.728163 -0.29593518 0
4.5010824 15.510592 -0.27757233 0
4.5348759 1.7246027 -0.17417851 0
4.5409751 1.4316308 -0.24692182 0
4.4601841 1.013309 -0.23950212 0
4.530654 0.69641393 -0.23979411 0
4.607439 -0.57232451 -0.284785 0
4.6049147 -1.0062255 -0.27603501 0
4.429143 -1.2419224 -0.28059372 0
4.5390577 16.489548 0.18718006 0
4.4841743 16.239458 0.17779432 0
4.5313125 15.445949 0.13827866 0
4.5388656 0.69359851 0.18386024 0
4.3282123 1.3271413 -0.88797462 0
4.207109 18.405273 -0.77117091 0
4.2092886 18.199957 -0.59253079 0
4.3690815 16.47913 -0.59273177 0
4.3687539 16.233467 -0.65136844 0
4.3713117 15.760506 -0.59873325 0
4.3825026 15.577115 -0.40375906 0
4.3847709 1.3493564 -0.63294607 0
4.3825555 0.99954528 -0.69414824 0
4.3793106 0.73442775 -0.66173244 0
4.2135801 -1.0302694 -0.65158844 0
4.1211805 -1.2385721 -0.70264953 0
4.3014116 -1.6759701 -0.6148212 0
4.1464977 18.452896 -0.2479417 0
4.211215 18.203018 -0.26031041 0
4.3779435 16.500378 -0.19951612 0
4.3653078 16.234924 -0.28311092 0
4.3625145 15.759511 -0.25219879 0
4.3548074 1.3705275 -0.25228378 0
4.3557062 0.98602206 -0.24594325 0
4.3580685 0.71000737 -0.24625282 0
4.2563629 -0.64965868 -0.29502845 0
4.206449 -1.0347072 -0.25729442 0
4.0516357 -1.2312368 -0.27476129 0
4.2889194 -1.6740954 -0.21921191 0
4.3616285 16.539179 0.14896052 0
4.3657885 16.176142 0.13227898 0
4.3713741 15.729161 0.19891463 0
4.3140178 -1.6502502 0.17572509 0
3.7214985 18.411978 -0.60425949 0
3.7585196 18.271532 -0.58628488 0
3.8174145 -1.1523191 -0.7115649 0
3.7927363 18.451479 -0.27059084 0
3.7834752 18.28458 -0.30112278 0
3.8974931 -0.59321123 -0.22557026 0
3.7947032 -1.1301188 -0.27220333 0
3.8411846 -1.2467847 -0.25619179 0
3.3444288 18.210447 -0.58289415 0
3.3445954 -1.0754422 -0.64328915 0
3.3986568 18.409842 -0.36222106 0
3.3505044 18.244114 -0.28859711 0
3.5016541 -0.57708186 -0.27052096 0
3.3512723 -1.0736909 -0.25412008 0
3.3781419 -1.2774781 -0.25172719 0
3.2854047 18.464031 0.14638391 0
3.032398 18.169497 -0.5934279 0
3.015157 -0.57144636 -0.62360764 0
3.0539541 -1.0210422 -0.62833792 0
3.0235064 18.168921 -0.25248206 0
2.8732646 17.927332 -0.10116319 0
2.9750993 -0.57657695 -0.23245889 0
3.0489738 -1.0120934 -0.25818333 0
2.8100491 -1.2886028 -0.31300262 0
3.0249765 -0.5698331 0.17942601 0
2.6180489 18.157665 -0.60333627 0
2.5918252 -0.70013106 -0.59954542 0
2.6001651 -1.0076249 -0.63266301 0
2.5887485 18.144476 -0.25083664 0
2.5788012 -0.61998409 -0.20029169 0
2.5992765 -1.007181 -0.27685985 0
2.6719742 -1.2433534 -0.28632188 0
2.5818429 -0.68610877 0.10032028 0
2.2064495 18.462856 -0.56114113 0
2.2137942 18.157831 -0.61213833 0
2.0924907 -0.59913766 -0.60369486 0
2.1831081 -0.98116016 -0.6211735 0
2.0697243 18.447262 -0.17002296 0
2.2130148 18.172913 -0.29115298 0
2.1465936 -0.58931023 -0.2723344 0
2.1990643 -0.99566537 -0.26458481 0
1.9775617 18.441845 -0.68013823 0
1.8274238 18.154669 -0.5970819 0
1.9170779 -0.56437016 -0.54091012 0
1.8247817 -0.97311872 -0.62930083 0
1.9870026 18.445311 -0.29720515 0
1.7922113 18.169634 -0.29821697 0
1.8242868 -0.62696087 -0.2343065 0
1.8398634 -0.99087071 -0.26126254 0
1.9718781 -0.69223434 0.089024775 0
1.4959528 18.41013 -0.65792394 0
1.4271114 18.179136 -0.60002369 0
1.4008399 -1.0039479 -0.63256472 0
1.5375745 18.42231 -0.26589718 0
1.3975891 18.180405 -0.29896194 0
1.3853917 -0.63019657 -0.18225206 0
1.4170777 -1.0080773 -0.26618767 0
1.492605 18.427916 0.19933113 0
0.85281682 18.400499 -0.86919022 0
0.9590888 -1.2117829 -0.84879148 0
1.0648844 18.418171 -0.64241403 0
1.0007356 18.173666 -0.59406412 0
0.99174404 -1.0028324 -0.59637749 0
1.0198443 18.404037 -0.2848253 0
0.98952508 18.19339 -0.31440073 0
1.0356646 -0.66690254 -0.23325276 0
1.0099244 -1.0047364 -0.27190596 0
1.0299025 -1.2059994 -0.2359135 0
0.59851164 18.18084 -0.63463229 0
0.57906729 -1.0081323 -0.60726815 0
0.60114187 18.198788 -0.30650815 0
0.60706037 -1.0050756 -0.24627751 0
0.55878162 -0.66392261 0.11787311 0
0.20275921 18.170736 -0.61457187 0
0.16903742 -1.0122927 -0.59504312 0
0.18287088 18.19655 -0.29577151 0
0.1257906 -0.6800499 -0.17978507 0
0.20519848 -1.0025355 -0.26257113 0
-0.19537765 18.165836 -0.62210345 0
-0.23746389 -1.0109659 -0.61144286 0
-0.23101828 18.169195 -0.25265807 0
-0.2826246 17.926598 -0.13058306 0
-0.0542202 -0.69149113 -0.19795378 0
-0.20834498 -1.0088034 -0.2638635 0
-0.29432285 17.946716 0.16402714 0
-0.59172165 18.200169 -0.6106419 0
-0.55013657 17.97332 -0.55839771 0
-0.63983142 -1.0094626 -0.62530589 0
-0.50055218 18.443699 -0.306373 0
-0.61459345 18.16437 -0.25284818 0
-0.65282047 17.913834 -0.16301763 0
-0.57535744 -0.69474077 -0.19219095 0
-0.60278332 -1.0076821 -0.24126004 0
-0.631356 17.947704 0.1679616 0
-0.97818148 18.202127 -0.60629588 0
-0.91739798 17.97282 -0.65887177 0
-1.0072482 -1.0110222 -0.61774361 0
-1.0035799 18.433437 -0.30610734 0
-0.97282034 18.203562 -0.26619238 0
-0.87062585 17.92638 -0.20733203 0
-1.0003361 -1.0049399 -0.24247254 0
-0.87804353 17.93083 0.11493812 0
-1.3597795 18.417168 -0.88325793 0
-1.4111665 18.177235 -0.62640244 0
-1.3624077 17.977406 -0.67008889 0
-1.3864713 -1.005334 -0.59802967 0
-1.3946072 18.417856 -0.2706753 0
-1.4096622 18.20034 -0.27773321 0
-1.4402504 17.958633 -0.23583575 0
-1.3994476 -1.0052738 -0.25180244 0
-1.3090973 17.992138 0.081189923 0
-1.3026409 -0.77439785 0.029125422 0
-1.8095843 18.186958 -0.62539625 0
-1.7190111 17.989864 -0.5760144 0
-1.7978777 -0.99802417 -0.60726869 0
-1.8129908 18.192724 -0.2825211 0
-1.8107741 17.922222 -0.24273439 0
-1.9916425 1.4881554 -0.2886003 0
-1.7994889 -1.0011172 -0.25390199 0
-1.798597 18.194525 0.18521355 0
-1.7919331 -0.6472522 0.16407786 0
-1.8027325 -0.99857837 0.18711548 0
-2.2120538 18.197603 -0.64958739 0
-2.2754536 17.934433 -0.65124309 0
-2.2772992 16.451801 -0.53875887 0
-2.303174 16.210712 -0.55497032 0
-2.307977 15.775921 -0.60805357 0
-2.3889484 8.8106794 -0.47764921 0
-2.3268707 8.6153212 -0.63939601 0
-2.2348187 8.2470894 -0.53500938 0
-2.3685699 1.6764855 -0.59360647 0
-2.3078856 1.4336706 -0.60332018 0
-2.307699 1.0277997 -0.56038451 0
-2.3033342 0.7188195 -0.58614701 0
-2.214911 -0.70828915 -0.68072504 0
-2.1972997 -0.9960857 -0.61357194 0
-2.2191377 18.194315 -0.28092089 0
-2.1399698 17.924204 -0.25152379 0
-2.2629931 16.464886 -0.23573035 0
-2.2699258 16.205456 -0.2586123 0
-2.2964206 15.766285 -0.25640053 0
-2.3802431 8.8220282 -0.21265538 0
-2.3351951 8.6224327 -0.24774082 0
-2.2070768 8.2512865 -0.18331815 0
-2.3655367 1.6793631 -0.1957342 0
-2.2921536 1.4100431 -0.25572604 0
-2.2850895 0.97703278 -0.25832507 0
-2.2982864 0.72074527 -0.20364344 0
-2.2290101 -0.71219063 -0.30311784 0
-2.2050359 -1.0004495 -0.27506986 0
-2.320286 8.5196943 0.16831218 0
-2.1703548 8.2439432 0.15885711 0
-2.3893633 1.6760948 0.19971365 0
-2.3056247 0.71316761 0.1959008 0
-2.1577024 -0.70552826 0.074087024 0
-2.1999695 -0.99734271 0.19821084 0
-2.5777333 18.182968 -0.65910417 0
-2.5719681 17.943527 -0.64876151 0
-2.6071322 16.443817 -0.6819908 0
-2.5478923 16.283035 -0.59128147 0
-2.6184955 15.745503 -0.62754291 0
-2.6355505 15.525065 -0.51800227 0
-2.5742319 8.8217106 -0.60997844 0
-2.5617673 8.6445541 -0.59105182 0
-2.5741243 8.3571453 -0.58219367 0
-2.4948273 3.2282534 -0.64656657 0
-2.6930401 1.6767902 -0.65197879 0
-2.6004345 1.4577264 -0.60475171 0
-2.4287844 1.1658058 -0.4276799 0
-2.5775428 0.70044553 -0.60323006 0
-2.5056906 -0.72089863 -0.67032838 0
-2.5954304 -0.99577016 -0.60701472 0
-2.609642 18.187963 -0.28276721 0
-2.5465515 17.906935 -0.24476746 0
-2.6982381 16.460926 -0.2188281 0
-2.4262731 16.323215 -0.32769471 0
-2.6096539 15.725975 -0.268125 0
-2.4878469 15.477343 -0.28789607 0
-2.5674434 8.8240957 -0.23575908 0
-2.5316932 8.6342316 -0.26099098 0
-2.5550826 8.3593254 -0.21029142 0
-2.6310005 3.2480812 -0.24817136 0
-2.5789366 3.0800877 -0.24858169 0
-2.6824448 1.6821334 -0.19718811 0
-2.6065643 1.4621059 -0.27050883 0
-2.4398012 1.0015411 -0.33659708 0
-2.5963311 0.70309812 -0.1971426 0
-2.5173545 -0.72164631 -0.29905906 0
-2.5953958 -1.0010548 -0.25640857 0
-2.5935299 18.191242 0.16054836 0
-2.6297488 16.447161 0.07265576 0
-2.4357967 16.320293 0.064812563 0
-2.5713098 8.8250523 0.16400819 0
-2.6353388 3.2502866 0.14311229 0
-2.5741787 3.0887492 0.14277609 0
-2.6949697 1.6684984 0.18657194 0
-2.5895314 0.70678848 0.19510464 0
-2.4961262 -0.72515965 0.071438372 0
-2.5974197 -0.99065787 0.19161068 0
-3.0418313 18.169361 -0.63879859 0
-2.9338789 17.931608 -0.76618004 0
-3.0326397 16.514868 -0.56554556 0
-2.9898481 16.262262 -0.70571947 0
-3.0123346 15.747351 -0.64633679 0
-2.9536893 15.517303 -0.63856739 0
-2.9172626 8.862545 -0.6205737 0
-2.9173205 8.6087618 -0.59899998 0
-2.9137244 8.352582 -0.59339166 0
-3.1653798 3.5492268 -0.6469661 0
-3.1045551 2.9001067 -0.67168355 0
-2.9590435 1.6688582 -0.54350054 0
-2.9808509 1.4464853 -0.59621382 0
-2.9920838 0.98275739 -0.59880054 0
-2.9703636 0.71975452 -0.56633586 0
-3.0601649 -0.72978508 -0.55060953 0
-2.9969287 -1.0005658 -0.59003985 0
-3.0157883 18.179319 -0.27895856 0
-3.0046961 17.928827 -0.24357429 0
-3.0182407 16.471506 -0.22999592 0
-2.9806452 16.270405 -0.25685069 0
-3.0038698 15.732765 -0.25354764 0
-2.9558218 15.504803 -0.21732225 0
-2.913424 8.8701258 -0.239438 0
-2.9026723 8.61059 -0.24741045 0
-2.9128146 8.3568335 -0.18760842 0
-3.1194265 3.4639142 -0.26766261 0
-2.9221947 1.6670327 -0.18171728 0
-2.9782488 1.4671055 -0.24376741 0
-3.0033116 0.9918744 -0.23719814 0
-2.9833403 0.71865898 -0.20210823 0
-3.0073707 -0.74379563 -0.268978 0
-3.0024514 -0.99599206 -0.24056372 0
-2.9850883 18.179686 0.16348091 0
-3.0074511 16.50576 0.18349046 0
-2.9855833 16.236071 0.1652019 0
-2.9132314 8.8725805 0.17020078 0
-2.9123003 8.619483 0.17708768 0
-3.1080613 3.3944607 0.1822228 0
-2.9462037 1.6768513 0.09343107 0
-2.9948971 0.9762525 0.16082859 0
-2.9874239 0.72158176 0.17961855 0
