# .PCD v0.7 - Point Cloud Data file format
VERSION 0.7
FIELDS x y z intensity
SIZE 4 4 4 4
TYPE F F F F
COUNT 1 1 1 1
WIDTH 1413
HEIGHT 1
VIEWPOINT 0 0 0 1 0 0 0
POINTS 1413
DATA ascii
-3.4201493 2.8069849 0.17829601 0
20.002563 2.9338894 0.1472937 0
-46.894791 3.226135 0.088652641 0
-46.73259 3.1273322 0.13075051 0
-22.846199 3.0504329 0.27693373 0
-22.560316 3.0854874 0.19097853 0
-21.198738 3.1669726 0.26254669 0
-18.047939 3.1072352 0.23474717 0
-17.941095 3.1721931 0.12642676 0
-17.626312 3.1771159 0.19532947 0
-9.2120695 3.1722889 0.12471487 0
-5.7668967 3.1455071 0.19593233 0
-5.4772978 3.1914105 0.10748821 0
-5.3203993 3.2048149 0.19586928 0
19.940687 3.2126694 0.22453775 0
-46.895496 3.3787169 0.12075561 0
-18.025946 3.57742 0.2784453 0
-17.984451 3.5341218 0.19372052 0
-17.631758 3.4185035 0.18732353 0
-9.2698641 3.4312632 0.21479887 0
-5.4454746 3.3125551 0.23847884 0
-5.3664608 3.5436296 0.10547355 0
19.927294 3.3512242 0.15318887 0
20.10268 3.5111451 0.2341308 0
-46.902519 3.7604556 0.17144215 0
-9.3134623 3.630053 0.10260932 0
-9.299015 3.7266147 0.25694203 0
-5.4001174 3.6848326 0.08036083 0
-5.3061142 3.7359567 0.19779131 0
20.027048 3.7018669 0.1310347 0
-46.861828 4.053287 0.14337376 0
-17.630161 3.9908986 0.19882146 0
-11.434384 4.1625104 0.28084353 0
-9.2817926 4.1098223 0.1621073 0
-5.8066349 4.0872955 0.16544804 0
-5.5488434 4.0911398 0.15326737 0
-5.3395009 4.0829582 0.20363897 0
19.998711 4.1010323 0.1971646 0
20.159086 4.1531763 0.1665044 0
-46.745892 4.3351746 0.086293489 0
-17.591621 4.3845258 0.29343283 0
-16.285667 4.4098439 0.21451411 0
-15.369359 4.280189 0.15085244 0
-13.849665 4.3605351 0.26234549 0
-13.509723 4.3925996 0.042910874 0
-13.269523 4.2787924 0.17503136 0
-11.424385 4.4081707 0.20256494 0
-11.347535 4.3432064 0.15164419 0
-10.904679 4.3024135 0.11018935 0
-10.596157 4.3625898 0.062327933 0
-9.3030548 4.4839659 0.091558099 0
-9.2616825 4.363821 0.1704537 0
-5.7292562 4.229351 0.079731457 0
-5.4948726 4.2503128 0.18041956 0
-5.2706094 4.4900436 0.29330409 0
-4.3104692 4.4800868 0.15597138 0
-4.0716238 4.4918165 0.20640092 0
18.833347 4.293982 0.17953528 0
19.068594 4.4086056 0.15604208 0
19.303537 4.3930082 0.15294993 0
19.74847 4.4243741 0.14051805 0
19.940687 4.3507881 0.18431358 0
-46.76923 4.6940064 0.14611702 0
-46.33913 4.7495255 0.17718363 0
-17.601665 4.5561185 0.20668754 0
-16.914886 4.7773438 0.24940062 0
-16.537205 4.79813 0.14981464 0
-16.27492 4.684474 0.22162761 0
-15.353724 4.7932901 0.11266931 0
-15.023235 4.7648129 0.10199779 0
-14.817411 4.7124691 0.12111182 0
-14.579685 4.7069006 0.11746582 0
-14.159161 4.7009163 0.19218662 0
-14.047066 4.7531166 0.15901163 0
-13.244201 4.7332454 0.23369771 0
-12.721689 4.7997856 0.22538376 0
-12.578327 4.7578387 0.18738091 0
-12.112694 4.7879548 0.17733252 0
-11.963092 4.7662482 0.072741173 0
-11.560966 4.7852879 0.20370859 0
-11.382633 4.7406826 0.093971424 0
-10.905753 4.6520362 0.21411377 0
-9.9021492 4.7917981 0.057816327 0
-9.8846941 4.7919898 0.065133333 0
-9.314785 4.7270432 0.24844372 0
-9.2342386 4.5433097 0.23810878 0
-5.3248105 4.5751438 0.15245113 0
-4.9258695 4.5339026 0.17414266 0
-4.6171169 4.5476303 0.07700555 0
-4.2745228 4.5443773 0.07661958 0
-4.0564432 4.5754452 0.093426362 0
-3.7664483 4.5425191 0.11706895 0
18.952053 4.5005527 0.037381086 0
19.271456 4.6685638 0.22359265 0
19.933178 4.6225395 0.16825385 0
-46.746994 4.9912472 0.17557365 0
-46.012524 4.8489966 0.10108557 0
-18.237078 5.0934124 0.29793823 0
-17.610128 4.8897214 0.29436582 0
-16.885323 4.977313 0.26784062 0
-16.628109 4.827333 0.22818732 0
-16.317064 4.8559389 0.25403988 0
-15.249621 4.8130445 0.14069611 0
-14.830095 4.8998852 0.16317463 0
-14.502619 4.8699369 0.2167778 0
-14.291954 4.8810902 0.10116994 0
-13.967742 4.8495889 0.12897135 0
-13.583328 4.9869871 0.19427973 0
-12.921527 4.8687372 0.20618901 0
-12.41584 4.8054833 0.20983654 0
-11.83844 4.8369489 0.11690181 0
-11.512126 4.8767514 0.15935282 0
-10.514231 4.8733425 0.19410948 0
-10.439301 4.8476238 0.2020244 0
-9.8888245 4.8102422 0.27799016 0
-9.3273153 4.8048887 0.057004154 0
-9.2643785 4.8903179 0.14219269 0
19.170687 4.9341669 0.13517432 0
19.316931 4.9132824 0.15882282 0
-46.74855 5.2323399 0.16339524 0
-46.370121 5.338624 0.27064034 0
-46.040592 5.2634068 0.11262673 0
-18.21895 5.1382275 0.12341116 0
-17.778795 5.2252245 0.17687848 0
-17.603455 5.2156429 0.19906957 0
-16.846855 5.165628 0.18145829 0
-11.327798 5.1616173 0.27992603 0
-9.9024563 5.262671 0.11551873 0
-9.8338432 5.3580818 0.11301509 0
-9.4539204 5.333344 0.18909927 0
-9.2549944 5.2547555 0.1048902 0
-8.8219109 5.3161588 0.18508561 0
-8.629261 5.2044601 0.14673701 0
18.827181 5.278121 0.18388265 0
19.117374 5.1736097 0.19370541 0
19.251608 5.2757735 0.16924451 0
19.927183 5.3198056 0.092441119 0
-46.718796 5.538744 0.16529053 0
-46.2841 5.5911946 0.13825502 0
-45.901047 5.6773686 0.28952157 0
-43.344223 5.6617756 0.24557219 0
-9.3174486 5.4987993 0.29706231 0
-9.2543011 5.4990201 0.045766577 0
19.790342 5.4338131 0.10877869 0
19.820564 5.438179 0.24702901 0
-45.972221 5.8048348 0.071363173 0
-45.899849 5.7219448 0.10773997 0
-43.296906 5.8321462 0.20460801 0
10.441181 5.875144 0.13714877 0
19.082699 5.8995261 0.1797545 0
19.415531 5.8880229 0.14057539 0
19.753336 5.8548927 0.13554525 0
19.883005 5.9209886 0.23389105 0
-46.738384 6.0710874 0.066688895 0
-46.340729 6.234067 0.13332175 0
-46.013519 6.2501054 0.13053425 0
10.427265 6.1792374 0.19993895 0
19.038118 6.1529016 0.11533717 0
-46.295052 6.3113365 0.052644551 0
-43.530758 6.3335037 0.19983119 0
-43.371994 6.4091625 0.21033752 0
-43.072781 6.5038486 0.21090119 0
19.056931 6.4681001 0.16818233 0
-46.765396 6.6180353 0.13013589 0
-46.026939 6.8278894 0.13366099 0
-43.511372 6.679441 0.24710818 0
-43.041203 6.6910338 0.10614816 0
10.440722 6.8052897 0.11936399 0
19.064253 6.7284074 0.21039717 0
-46.736534 6.9347687 0.11316811 0
-46.004513 7.0738778 0.08415743 0
-42.885399 7.0957918 0.065310597 0
-21.485891 7.1469936 0.17725427 0
-21.163891 7.0750613 0.23779935 0
-20.802782 7.0946822 0.16468199 0
-20.551464 7.0841141 0.2877188 0
-18.186504 7.1038122 0.19220281 0
-17.789228 7.070528 0.25854099 0
-17.47102 6.9107337 0.15681155 0
-17.233011 6.9835544 0.1212976 0
-16.9422 7.0130019 0.15992041 0
-10.114575 7.0138993 0.16202465 0
-9.8502579 7.0571318 0.21783815 0
-9.4808645 7.0113745 0.18219663 0
-9.1023912 7.0363951 0.1283606 0
-8.7570829 7.0927033 0.14357619 0
-8.6373062 7.0880222 0.19572462 0
-6.3480988 7.1201158 0.21269858 0
-6.1849794 7.1267457 0.15624915 0
-5.8015795 7.1071081 0.10879672 0
-5.4707708 7.0670519 0.13488989 0
-5.3503113 7.1737318 0.22996104 0
-2.3275828 7.1294079 0.11184856 0
10.44683 7.0063157 0.1803744 0
18.894062 7.0337386 0.056370914 0
19.042124 7.0501752 0.17307514 0
19.33087 7.1694665 0.13988961 0
19.960745 7.1435332 0.16889803 0
-46.727673 7.4159245 0.12532684 0
-45.998089 7.3836498 0.086180896 0
-43.602615 7.3278494 0.1659804 0
-43.396172 7.3019371 0.12871762 0
-43.008533 7.2979445 0.22485761 0
-42.761173 7.357162 0.092764229 0
-24.768543 7.4489188 0.16210949 0
-21.559101 7.3711176 0.22082973 0
-17.805843 7.4426036 0.082348347 0
-16.901533 7.3307505 0.29846454 0
-16.782141 7.4467788 0.13583511 0
-15.773882 7.4912982 0.078377627 0
-15.010433 7.4715815 0.13690591 0
-14.191133 7.3137197 0.13565743 0
-14.028606 7.4023705 0.17952448 0
-12.340996 7.4849586 0.059995472 0
-11.07891 7.3892159 0.18402767 0
-10.128529 7.2477407 0.060185581 0
-9.3497782 7.2345171 0.065508604 0
-9.1817465 7.3264213 0.11703765 0
-8.5406046 7.2335682 0.14792418 0
-6.369185 7.3628206 0.19078055 0
-6.2666893 7.3810482 0.017903626 0
-5.7314792 7.2359166 0.10557855 0
-5.5853724 7.2518482 0.14589337 0
-5.3022256 7.2978892 0.1575163 0
-2.5185966 7.427083 0.11859199 0
-2.2785928 7.3807626 0.17515491 0
-2.0060012 7.3666496 0.15685183 0
16.138636 7.4981275 0.22699477 0
16.265127 7.4290953 0.076535337 0
16.586195 7.3078651 0.088303693 0
16.951235 7.3929367 0.18483871 0
18.880959 7.2294827 0.23264995 0
19.021906 7.2826157 0.085524589 0
19.70569 7.3087831 0.12304565 0
19.819115 7.2416568 0.16241956 0
-46.745617 7.6490636 0.10749996 0
-46.364372 7.6570063 0.18615273 0
-45.946495 7.6502118 0.13085604 0
-43.658775 7.6971922 0.11091957 0
-42.887344 7.6353731 0.11580945 0
-24.715862 7.6591244 0.17501354 0
-21.741005 7.5305037 0.24101216 0
-20.446476 7.622261 0.16944933 0
-16.603642 7.6438661 0.13785571 0
-16.108946 7.6706905 0.12795782 0
-15.766499 7.5831223 0.20145722 0
-15.466755 7.5468206 0.082283348 0
-15.058026 7.5588655 0.17985776 0
-14.879608 7.7448516 0.22566712 0
-14.498973 7.7333627 0.26876664 0
-14.300782 7.6198559 0.13410613 0
-13.929024 7.5652542 0.20560443 0
-13.082264 7.5437379 0.20084107 0
-12.707965 7.5491004 0.19656612 0
-12.439292 7.5744834 0.15368392 0
-12.160635 7.5482712 0.18972293 0
-11.808716 7.5941563 0.19869354 0
-11.479399 7.615438 0.1835987 0
-11.190787 7.5700707 0.14629552 0
-11.057604 7.75945 0.19680882 0
-10.082656 7.7248669 0.19756174 0
-9.2093601 7.6551561 0.11525696 0
-6.3752551 7.7188244 0.15092444 0
-6.2539463 7.6657629 0.066227555 0
-5.2724395 7.5854764 0.14532499 0
-2.4505908 7.7324677 0.094833843 0
-1.9116727 7.6027107 0.15368442 0
-1.796656 7.6590714 0.29041827 0
10.413638 7.651917 0.1207742 0
16.441469 7.6296229 0.090814345 0
16.953932 7.6329942 0.10606015 0
-45.944984 7.8782558 0.066259518 0
-43.669147 8.0621328 0.11365138 0
-43.123077 8.0396338 0.1617762 0
-42.887829 8.0040131 0.12713729 0
-21.347559 7.9139943 0.24850869 0
-21.21241 7.8572702 0.067145631 0
-20.814648 7.8815908 0.033055574 0
-20.519989 7.8992271 0.14898846 0
-17.756027 7.9066505 0.18986687 0
-17.692604 8.0367813 0.17198187 0
-11.135763 7.9836578 0.17292106 0
-10.052269 8.0080242 0.15961795 0
-9.8593369 7.9903517 0.13951135 0
-9.189867 7.9897223 0.11478177 0
-6.3526821 7.9282207 0.18352684 0
-6.211822 8.0575867 0.13185102 0
-5.8342175 8.0674152 0.085048251 0
-5.4980392 7.9775023 0.1665888 0
-5.2927408 7.917479 0.1425804 0
-2.4655976 7.8214769 0.21109493 0
-2.2213175 7.9655867 0.19956586 0
-1.9516447 7.9555459 0.20659816 0
-1.7604533 7.9938183 0.062703252 0
10.393193 7.9479747 0.18123166 0
16.778 8.0248652 0.28755409 0
16.998316 7.9491205 0.16532038 0
17.116898 8.0926819 0.054359645 0
18.95298 8.0986595 0.10528392 0
19.789867 8.0267229 0.097116932 0
19.897635 7.9848571 0.17699122 0
-46.731895 8.3727283 0.13329619 0
-45.967365 8.2630568 0.098168246 0
-45.732368 8.3050747 0.1619696 0
-43.640881 8.1271915 0.12301701 0
-43.343056 8.234539 0.10797212 0
-43.058025 8.2310486 0.19386508 0
-42.894974 8.1164742 0.20050222 0
-17.786512 8.2337637 0.16685449 0
-9.8793907 8.2573557 0.22326286 0
-9.3244715 8.1880684 0.10883975 0
-9.2234631 8.300601 0.16900462 0
-5.5577712 8.2202959 0.22863829 0
10.419195 8.2740641 0.14590035 0
16.243748 8.1241426 0.20026609 0
16.661543 8.1256237 0.14311892 0
16.89782 8.1141548 0.11197934 0
17.110693 8.1050463 0.29008567 0
18.807493 8.2701559 0.18507233 0
18.990181 8.312541 0.18743406 0
19.421303 8.3027382 0.11238213 0
19.756454 8.2314568 0.17378306 0
19.924837 8.263792 0.17232637 0
-45.709644 8.5370531 0.17257868 0
-43.014351 8.5146942 0.17283872 0
-17.707779 8.4997387 0.10661472 0
-9.8927002 8.5771379 0.10228807 0
-9.2152004 8.6152592 0.15864003 0
18.90229 8.5286751 0.1589475 0
19.991795 8.5951195 0.096697278 0
-45.735779 8.8377314 0.15772367 0
-43.405167 8.771595 0.21026608 0
-43.015965 8.8619566 0.20027171 0
-42.779526 8.9010162 0.025047004 0
-17.729935 8.8726921 0.1047737 0
-17.610382 8.841939 0.27029181 0
-11.353002 8.814724 0.22339517 0
-9.7522316 8.8426733 0.04730624 0
-9.2788801 8.8023119 0.14061609 0
19.888283 8.8151894 0.16904205 0
-45.943401 9.0111761 0.26352707 0
-45.746391 9.1383743 0.072927795 0
-43.342136 9.1216545 0.22581391 0
-43.081245 9.1284676 0.19960262 0
-17.73089 9.1279154 0.16947678 0
-11.231862 9.2082663 0.10549909 0
-9.7483664 9.2718563 0.05882436 0
-9.2233171 9.0934763 0.18314156 0
18.937933 9.1025085 0.16203375 0
19.940622 9.0653496 0.087892294 0
-46.636734 9.5427876 0.22517917 0
-46.055817 9.557395 0.19666442 0
-45.808941 9.5021086 0.12756439 0
-43.077824 9.3807068 0.18431473 0
-17.713224 9.4986601 0.16293071 0
-17.691631 9.3172073 0.27229416 0
-11.254494 9.3111258 0.28957745 0
-9.2578039 9.4820061 0.15568888 0
18.803684 9.4920845 0.20835987 0
19.970322 9.4156046 0.20372283 0
-46.257908 9.8075142 0.13224345 0
-46.167393 9.89114 0.11697894 0
-45.815948 9.8582163 0.20573346 0
-17.713821 9.831728 0.11253941 0
-9.7364988 9.6571894 0.10634196 0
-9.314332 9.6908817 0.15848184 0
18.785847 9.7625751 0.14836937 0
18.93935 9.7795315 0.092327058 0
19.322834 9.822547 0.13861056 0
19.972715 9.6818171 0.13347384 0
-45.913612 10.136011 0.048525095 0
-45.752552 10.019474 0.10737921 0
-21.162891 10.187194 0.11677124 0
-17.732542 10.046341 0.10829976 0
-17.672226 10.029467 0.18187 0
-9.717557 10.034027 0.17892319 0
-9.2578173 10.041189 0.049060579 0
19.993332 10.046164 0.10147329 0
-46.671104 10.434419 0.095950268 0
-46.266644 10.468041 0.096615955 0
-46.080242 10.424302 0.1879468 0
-45.774044 10.420741 0.14362805 0
-21.335251 10.200287 0.062759668 0
-17.699078 10.363847 0.1288614 0
-9.3146658 10.388238 0.045663565 0
-9.2339106 10.416369 0.090321243 0
19.976526 10.400326 0.23136251 0
-46.746113 10.768482 0.1495567 0
-46.273117 10.508821 0.065372229 0
-22.575695 10.608446 0.1279245 0
-22.479565 10.61592 0.0038205683 0
-22.00351 10.71214 0.16670728 0
-21.658318 10.67441 0.11078969 0
-21.402353 10.730371 0.094324887 0
-21.019417 10.560683 0.031229973 0
-17.724083 10.636064 0.1576909 0
-17.654514 10.710007 0.20974332 0
-9.3312092 10.593377 0.082433939 0
-9.2286062 10.724498 0.12614375 0
20.031391 10.640409 0.017563283 0
-47.0215 10.897945 0.1757299 0
-46.642029 11.019461 0.11513188 0
-21.449198 11.006017 0.19322531 0
-21.104755 10.928373 0.17887825 0
-17.688181 10.883837 0.1238609 0
-11.726312 10.983586 0.28431314 0
-11.53316 10.952118 0.12882328 0
-11.347495 10.856126 0.23045564 0
-11.076149 10.901524 0.14527148 0
-9.3007879 10.965945 0.25649703 0
-9.2460375 10.953151 0.1771639 0
-46.922295 11.271123 0.11847762 0
-46.682037 11.272801 0.22026785 0
-21.474449 11.200121 0.18033421 0
-17.634888 11.196922 0.22947221 0
-9.3023319 11.175562 0.043891042 0
-9.2342663 11.267063 0.15737864 0
20.031658 11.218869 0.109248 0
-46.95256 11.605796 0.1226353 0
-21.48254 11.524809 0.18283442 0
-17.771786 11.514751 0.14590704 0
-11.078456 11.59831 0.25036159 0
-9.553627 11.528386 0.10804814 0
-9.2076893 11.525042 0.086414188 0
-5.4357448 11.470969 0.22078463 0
20.061501 11.564724 0.092261285 0
-46.961205 11.788028 0.18487087 0
-21.443539 11.861458 0.21976174 0
-17.78709 11.780847 0.12050968 0
-9.2777205 11.917045 0.14726259 0
-5.6148777 11.967109 0.22334127 0
-5.0606542 11.859118 0.28070784 0
-4.7205563 11.909143 0.19429097 0
-4.2654362 11.981932 0.2478781 0
-3.9208844 11.882298 0.18085992 0
-3.8628318 11.981716 0.28413478 0
20.130878 11.868961 0.20333637 0
-46.958771 12.116927 0.18388587 0
-46.640984 12.152388 0.13397661 0
-46.331959 12.251501 0.2064921 0
-46.095829 12.235965 0.15893695 0
-21.495661 12.103938 0.17504084 0
-21.208918 12.125636 0.19832394 0
-20.957348 12.002053 0.12582201 0
-17.664438 12.200384 0.032400638 0
-9.5908966 12.256161 0.12906721 0
-9.2411947 12.144047 0.12524396 0
-5.6034837 12.165689 0.17387968 0
-5.2080088 12.142169 0.13702546 0
-4.847507 12.294317 0.027566493 0
-4.6952205 12.104504 0.18696165 0
-4.2530813 12.198945 0.11953357 0
-4.0473819 12.261224 0.072968043 0
-3.8579309 12.140906 0.17322816 0
19.939924 12.22005 0.13858619 0
20.141655 12.18125 0.28927827 0
-46.279369 12.408626 0.06941098 0
-46.0564 12.367749 0.15446624 0
-22.857676 12.426324 0.17097063 0
-22.67527 12.414768 0.16341898 0
-22.404459 12.43341 0.10996971 0
-21.967247 12.44158 0.15131471 0
-21.755085 12.462091 0.13306478 0
-21.438057 12.487638 0.11153475 0
-21.192717 12.510348 0.15604302 0
-17.707018 12.552678 0.11998611 0
-17.610157 12.457618 0.21283591 0
-9.2540035 12.444855 0.15148477 0
-5.6418767 12.381905 0.14986961 0
-5.0364895 12.313163 0.02734381 0
-4.5437174 12.320685 0.03747654 0
-4.465415 12.302227 0.016103268 0
-3.8341818 12.503866 0.10637002 0
1.7452106 12.560267 0.18645971 0
1.9719795 12.547933 0.14174272 0
2.1848707 12.585999 0.21041059 0
2.8382444 12.584846 0.15682915 0
3.1936569 12.552258 0.098303899 0
3.3679399 12.538473 0.080572836 0
3.6747668 12.535534 0.17566341 0
4.0031757 12.557478 0.16772841 0
4.2829237 12.524912 0.13893461 0
4.6443286 12.59199 0.28581166 0
4.960465 12.541715 0.1389644 0
5.2865438 12.58862 0.17124797 0
5.6344309 12.571835 0.17855674 0
5.780951 12.574114 0.079751827 0
6.1629753 12.560165 0.16931824 0
7.4448547 12.586676 0.11225142 0
-54.296078 12.899235 0.065042496 0
-51.74501 12.882922 0.035375357 0
-46.664131 12.761059 0.17652386 0
-21.405468 12.621238 0.12505081 0
-21.254766 12.619408 0.092977077 0
-17.61367 12.776684 0.20229909 0
-9.4083805 12.808503 0.2026355 0
-9.2516232 12.827827 0.18325429 0
-5.474215 12.704388 0.17157073 0
-5.1087403 12.65293 0.2159279 0
-4.9310379 12.710055 0.10899919 0
-4.6757412 12.624848 0.25864443 0
-4.063273 12.702592 0.22254255 0
-3.8372593 12.79808 0.084225148 0
2.3434076 12.628566 0.11862981 0
2.6301091 12.631086 0.093274988 0
3.244035 12.609621 0.16903339 0
4.4056373 12.624366 0.12152052 0
4.7191958 12.660411 0.19629917 0
5.7409163 12.655501 0.16496459 0
6.105093 12.629702 0.056674436 0
6.4095678 12.61714 0.19769032 0
6.6759567 12.636962 0.16575189 0
7.1611509 12.624213 0.087897144 0
7.6112723 12.691461 0.18189715 0
8.5064592 12.685413 0.19816634 0
8.8087673 12.685739 0.13586289 0
9.5003643 12.655663 0.1173425 0
19.979282 12.668817 0.17445903 0
21.038979 12.881643 0.11079181 0
22.111879 12.827287 0.20169361 0
23.216042 12.899643 0.138872 0
23.724075 12.892494 0.15428032 0
24.187279 12.873425 0.15018634 0
24.542976 12.836885 0.29765916 0
-54.447472 12.905588 0.2872608 0
-54.086624 13.004858 0.14643762 0
-53.634926 12.923889 0.14039256 0
-53.294895 12.950409 0.090087831 0
-52.420357 13.00168 0.16935509 0
-51.468994 12.983145 0.047463179 0
-51.145771 12.996962 0.18166889 0
-50.872208 12.994179 0.10369808 0
-50.424278 13.004675 0.074264109 0
-50.204102 12.975122 0.091941632 0
-49.943272 12.964396 0.017657697 0
-49.773026 13.008321 0.087736905 0
-49.393253 12.991634 0.091251925 0
-49.02845 12.989775 0.1047262 0
-48.672947 12.996356 0.075023592 0
-48.383179 12.97062 0.1486367 0
-48.069534 12.958756 0.1099411 0
-47.82309 12.998847 0.10402101 0
-47.458649 12.95528 0.11925109 0
-47.282574 13.074442 0.15614526 0
-47.000538 13.176293 0.053890228 0
-46.663891 13.114489 0.20237476 0
-17.503304 13.058719 0.13532038 0
-17.236925 13.07049 0.11443811 0
-16.928724 13.052548 0.13064197 0
-16.706066 13.083076 0.13845193 0
-16.327049 13.088435 0.092434436 0
-15.985802 13.077365 0.13046513 0
-15.702801 13.103374 0.057778038 0
-15.392588 13.080517 0.15298876 0
-15.059865 13.112291 0.068420701 0
-14.844519 13.064809 0.16108026 0
-14.516001 13.080566 0.24428859 0
-14.233897 13.105489 0.15758941 0
-13.93022 13.130398 0.11764175 0
-13.137218 13.088528 0.10684754 0
-12.671451 13.097014 0.10316885 0
-12.507848 13.147533 0.17110749 0
-12.115345 13.166362 0.14037272 0
-11.726762 13.113439 0.27386844 0
-11.606085 13.153194 0.13709787 0
-10.679642 13.125328 0.17042696 0
-9.9666185 13.145757 0.17344368 0
-9.8215771 13.100857 0.16615133 0
-9.391942 13.056836 0.16079594 0
-9.1826391 13.121043 0.094141603 0
-5.5696273 12.994637 0.15050547 0
-5.0076652 12.931026 0.05873229 0
-4.5711212 12.9121 0.15491697 0
-4.033947 12.968637 0.11551335 0
-3.7163758 13.00761 0.12538046 0
19.997587 13.05847 0.17268726 0
20.24119 13.059074 0.23310988 0
20.623461 13.02704 0.14866588 0
20.870258 12.954932 0.187739 0
21.25536 12.904785 0.14497864 0
21.582783 12.932455 0.26962313 0
22.053181 12.930225 0.18122846 0
22.391632 12.952147 0.22142689 0
22.654852 12.906576 0.088724956 0
22.911774 12.921473 0.10985099 0
23.800591 12.924718 0.099576861 0
24.263506 12.994345 0.085703 0
24.39641 13.077568 0.19268751 0
-54.909565 13.261868 0.25751844 0
-54.233612 13.377259 0.28960836 0
-51.093674 13.306747 0.082185209 0
-10.792936 13.221897 0.29944038 0
-9.1491489 13.303459 0.27080095 0
24.259909 13.45604 0.18017367 0
-54.807999 13.679265 0.17972833 0
-54.384659 13.584715 0.18967223 0
-54.262333 13.596529 0.0237872 0
-51.017311 13.671513 0.087176859 0
-50.953537 13.62 0.13703716 0
24.245668 13.659709 0.1483524 0
-54.79409 14.090766 0.096420735 0
24.217428 13.808854 0.082143813 0
-54.786922 14.122964 0.27904981 0
-50.977489 14.281963 0.15955123 0
24.333282 14.315937 0.098398715 0
-54.766808 14.585733 0.18945336 0
-50.958534 14.456926 0.26962587 0
-31.69943 14.580798 0.08811757 0
-24.234066 14.627576 0.1321283 0
-21.182217 14.643964 0.16881223 0
-20.56329 14.598354 0.10725294 0
-20.384262 14.5841 0.012001052 0
-6.1989365 14.645144 0.19946513 0
-5.8793921 14.691673 0.29929897 0
-5.584486 14.638538 0.081181675 0
12.640101 14.696792 0.26112711 0
-54.873886 14.780727 0.059411824 0
-51.015163 14.984924 0.28039744 0
-50.973568 14.993135 0.12550759 0
-43.637749 14.775555 0.17516796 0
-43.364433 14.795765 0.1869121 0
-42.914444 14.784119 0.2105161 0
-42.814575 14.851616 0.12177538 0
-40.060116 14.954601 0.079252422 0
-39.857059 14.893852 0.21826464 0
-31.708523 14.763757 0.1899326 0
-31.436277 14.775054 0.1827762 0
-25.017267 14.89139 0.29934448 0
-21.270554 14.926781 0.052705646 0
-20.454245 14.891978 0.14828788 0
-20.382393 14.823071 0.19293442 0
-6.3739395 14.864799 0.1556806 0
-6.2488775 14.826098 0.16604798 0
-5.4759111 14.806591 0.10389274 0
-2.5648334 14.798984 0.14747694 0
-2.2701263 14.772243 0.20969513 0
-1.9719549 14.714204 0.14538072 0
-1.7647772 14.845255 0.19166625 0
4.920269 14.834302 0.18732981 0
5.2116165 14.810002 0.052163839 0
5.5334692 14.880043 0.16829988 0
5.7186069 14.849415 0.18306856 0
12.497684 14.834928 0.13843904 0
12.771916 14.841625 0.22043726 0
13.120261 14.889611 0.20116925 0
13.367821 14.909077 0.25805426 0
15.867637 14.795905 0.27972832 0
16.132402 14.875122 0.15159166 0
16.392895 14.877188 0.11312541 0
16.654375 14.840477 0.20734522 0
16.920038 14.880701 0.13602911 0
-54.854546 15.183173 0.067734078 0
-50.930431 15.111169 0.20152886 0
-43.628815 15.224529 0.23533069 0
-42.771355 15.128754 0.14794633 0
-39.88961 15.092664 0.20564005 0
-39.16531 15.169428 0.14872248 0
-38.953896 15.209392 0.17225844 0
-31.712063 15.270735 0.19958887 0
-31.466381 15.194689 0.15528679 0
-20.430668 15.166873 0.11266285 0
-6.3170457 15.181903 0.10471207 0
-6.2857161 15.166091 0.24555159 0
-5.5194178 15.112485 0.18833201 0
-2.587709 15.224843 0.10545313 0
-1.8082212 15.132605 0.22648224 0
-1.7602278 15.196065 0.16934116 0
5.7201905 15.120016 0.17221381 0
12.418184 15.215757 0.22153576 0
12.823027 15.027591 0.22746658 0
13.03353 15.115342 0.18483189 0
13.233696 15.202295 0.19138323 0
16.157001 15.182661 0.20642298 0
16.925814 15.12156 0.15593056 0
24.255011 15.118487 0.12887618 0
24.424599 15.177533 0.13459115 0
-51.073235 15.447766 0.15024196 0
-43.599796 15.522044 0.18358698 0
-42.821732 15.461746 0.15008959 0
-39.877663 15.378244 0.22237375 0
-39.083473 15.344803 0.14625669 0
-31.662218 15.328864 0.12196176 0
-31.303539 15.327593 0.11931229 0
-24.914223 15.385353 0.14012387 0
-24.744459 15.371089 0.18363798 0
-24.374641 15.37603 0.090137035 0
-24.221092 15.34222 0.13718063 0
-21.151501 15.365711 0.084994249 0
-20.566322 15.387881 0.15517311 0
-20.357824 15.32487 0.12996152 0
-6.2520647 15.5034 0.091886297 0
-5.9093418 15.558401 0.11314929 0
-5.5505114 15.458748 0.13767871 0
-2.5260174 15.53287 0.17110388 0
-1.7907108 15.467867 0.20602214 0
4.9151688 15.471781 0.12863247 0
5.6774845 15.480265 0.16126007 0
5.7500687 15.48252 0.17884809 0
12.501287 15.591444 0.19706571 0
13.139505 15.437657 0.21230218 0
13.427186 15.396626 0.095638603 0
13.564147 15.54684 0.23733979 0
16.072571 15.376889 0.17447342 0
17.0196 15.472836 0.11750729 0
24.450369 15.422235 0.11741635 0
-1.744103 15.635433 0.19279052 0
5.6240239 15.736704 0.035808325 0
5.7622795 15.63819 0.094402909 0
12.56824 15.667069 0.044321895 0
13.108231 15.615168 0.13392913 0
13.204399 15.611843 0.20241551 0
16.304695 15.637172 0.20797087 0
16.630398 15.647714 0.19563541 0
24.410696 15.751091 0.19604509 0
-51.60796 16.068565 0.27906922 0
24.426067 16.078476 0.11757952 0
24.463715 16.399227 0.20714165 0
-46.29266 16.79859 0.019489944 0
19.843609 16.796778 0.19935954 0
24.455786 16.556601 0.1294589 0
-51.118977 16.922501 0.24988329 0
-49.39185 17.053051 0.16065174 0
-46.340988 16.947844 0.11779514 0
-44.831596 16.993023 0.26466808 0
-43.107628 17.051922 0.092000306 0
-42.775517 17.08534 0.00068181753 0
-35.876858 16.989319 0.25942153 0
-35.545895 17.017317 0.20919247 0
-34.125198 16.972008 0.25314292 0
-32.446049 17.097181 0.17743278 0
-30.353321 17.095306 0.28497106 0
-29.929392 16.998917 0.27803627 0
-29.526403 16.985214 0.19977921 0
-29.185175 17.091496 0.29432243 0
-28.854321 17.044428 0.031413913 0
-28.654957 16.993324 0.12892172 0
-28.40642 17.044466 0.16066843 0
-27.95385 16.998217 0.28991455 0
-27.796661 17.043043 0.18177262 0
-27.41526 17.017675 0.11170741 0
-27.24892 17.035717 0.29442105 0
-26.9701 17.051477 0.12784556 0
-26.593599 17.044596 0.18292548 0
-26.298157 17.02947 0.22758572 0
-25.856855 17.020647 0.12620163 0
-25.584675 17.070347 0.10597539 0
-25.491983 17.027813 0.137977 0
-25.056419 17.024069 0.20939109 0
-24.409998 17.030331 0.18459746 0
-24.130604 17.030521 0.11901616 0
-23.984722 17.000576 0.14107758 0
-23.529175 17.047201 0.20307523 0
-23.267557 17.060083 0.18403499 0
-22.614584 17.03702 0.2007456 0
-21.548923 17.04431 0.19661932 0
-21.189709 17.064327 0.099215403 0
-20.855106 17.055084 0.14712454 0
-20.651474 17.069513 0.18818799 0
-17.44907 16.988541 0.087424576 0
-17.35891 17.080769 0.093299448 0
-17.006916 17.043291 0.13504995 0
-16.730469 17.086899 0.12131828 0
-9.5473242 17.06955 0.073147297 0
10.691588 17.020441 0.26913175 0
18.235796 17.05142 0.20539466 0
18.658148 16.862862 0.26940387 0
-54.090218 17.377045 0.0020620227 0
-53.478493 17.38833 0.16117573 0
-53.199268 17.306427 0.18081069 0
-50.908073 17.238544 0.13164508 0
-50.541119 17.248905 0.020226151 0
-50.271626 17.277498 0.19008489 0
-49.948566 17.267456 0.17240013 0
-49.628746 17.324089 0.12909344 0
-49.328381 17.306244 0.13900158 0
-49.015385 17.301302 0.15039432 0
-48.757935 17.369991 0.044083953 0
-48.551609 17.340557 0.20682673 0
-47.778152 17.396824 0.14916855 0
-47.574741 17.29549 0.13519193 0
-47.36541 17.315432 0.11652557 0
-46.849987 17.307537 0.1567764 0
-46.287144 17.287811 0.17264841 0
-44.893955 17.216419 0.16197899 0
-44.527142 17.282694 0.19563806 0
-44.27034 17.231144 0.18706977 0
-43.947704 17.277122 0.22944997 0
-43.640736 17.243971 0.14553635 0
-43.281021 17.272539 0.16872001 0
-42.99733 17.261684 0.19671029 0
-42.720085 17.261698 0.19025105 0
-42.499695 17.264549 0.13667928 0
-42.144684 17.256262 0.21115063 0
-41.830036 17.228708 0.18211181 0
-41.554489 17.24143 0.12847519 0
-41.272118 17.246284 0.20714578 0
-40.937565 17.198013 0.11594955 0
-40.113995 17.20644 0.1216228 0
-39.736172 17.184052 0.21333258 0
-39.421047 17.170403 0.1102227 0
-39.170055 17.207096 0.24993509 0
-38.870491 17.218447 0.17967007 0
-38.652073 17.220058 0.18257722 0
-38.293861 17.218943 0.21720922 0
-37.524673 17.219994 0.26732355 0
-37.420517 17.151897 0.21355496 0
-36.823009 17.238251 0.16831133 0
-36.433033 17.191645 0.13464227 0
-36.124928 17.201262 0.15519598 0
-35.914543 17.146011 0.15467387 0
-35.659508 17.198898 0.064192742 0
-35.219208 17.130922 0.27234986 0
-34.906002 17.150766 0.19146639 0
-34.098579 17.16058 0.24561748 0
-32.149765 17.147499 0.20045993 0
-31.786505 17.171997 0.29553995 0
-31.165174 17.117638 0.27198312 0
-30.478958 17.252356 0.24097013 0
-30.237469 17.227612 0.15612298 0
-29.958534 17.183008 0.28121647 0
-28.935989 17.132467 0.070066571 0
-28.383945 17.115101 0.10121936 0
-22.527777 17.280325 0.12853339 0
-22.400898 17.287565 0.20410345 0
-22.097477 17.253717 0.29877192 0
-21.757925 17.280865 0.19335535 0
-21.578516 17.306173 0.18659002 0
-20.637173 17.14949 0.18977943 0
-16.532562 17.171989 0.095194712 0
-15.676673 17.213175 0.11365293 0
-15.581855 17.19356 0.17114718 0
-14.918463 17.107029 0.11462459 0
-14.645205 17.113375 0.13708052 0
-14.301969 17.114931 0.16487065 0
-13.886623 17.145754 0.028020158 0
-13.697912 17.115892 0.10747334 0
-13.448558 17.113171 0.28107285 0
-13.082177 17.118572 0.072185576 0
-12.603046 17.115463 0.22917169 0
-12.532784 17.142735 0.20915076 0
-12.100174 17.150085 0.17484997 0
-11.82233 17.149544 0.041550238 0
-11.508709 17.194117 0.140687 0
-11.31722 17.189863 0.21458177 0
-10.981677 17.179094 0.18828398 0
-10.682263 17.16148 0.12236068 0
-10.332232 17.17664 0.1455002 0
-10.049187 17.159155 0.098246217 0
-9.7337313 17.178041 0.18634653 0
-9.4052753 17.216328 0.16797404 0
-5.9501457 17.186813 0.18000801 0
-5.559299 17.201468 0.14217195 0
-5.2527194 17.303532 0.19184256 0
-4.851182 17.378611 0.12944162 0
-4.3383951 17.170565 0.16479185 0
-4.1026745 17.20208 0.20485452 0
-3.695699 17.238214 0.097364791 0
-3.4731917 17.210754 0.16671208 0
-3.2589579 17.213366 0.16559996 0
-2.8899727 17.259281 0.10583629 0
-2.6110208 17.23065 0.19119865 0
-1.9659601 17.238541 0.19647463 0
-1.3567219 17.232967 0.20623009 0
-1.0275812 17.201155 0.0880109 0
-0.62091815 17.184473 0.021824777 0
-0.44186085 17.216135 0.1381219 0
-0.2250185 17.21394 0.20776482 0
0.21741299 17.203827 0.18578333 0
0.70885754 17.208015 0.16870609 0
1.0276916 17.221413 0.15905803 0
1.3866872 17.204296 0.16191673 0
1.6871395 17.21979 0.18375327 0
1.9083033 17.226208 0.21463048 0
2.2965138 17.250711 0.1350974 0
2.5823691 17.250931 0.18109737 0
2.8278975 17.232964 0.10615054 0
3.0873981 17.204231 0.099897273 0
3.507719 17.223841 0.1443508 0
3.6859231 17.24365 0.19936904 0
4.1159587 17.348759 0.22806448 0
4.3779969 17.342598 0.17016284 0
4.6386065 17.303846 0.17520976 0
5.2539797 17.27383 0.11593819 0
5.5118179 17.241907 0.20033428 0
5.862772 17.312294 0.11635094 0
6.1552391 17.331072 0.0042079687 0
6.5663643 17.239101 0.16617423 0
7.3527145 17.286659 0.1617329 0
7.5389781 17.297796 0.15720332 0
7.9091525 17.259336 0.13786724 0
8.2760773 17.289669 0.17272979 0
8.5465736 17.327202 0.15859334 0
8.8536606 17.343136 0.11869222 0
9.0887709 17.348064 0.17738447 0
9.4574203 17.306946 0.22985081 0
9.6637888 17.345774 0.10839827 0
10.047321 17.275816 0.17565763 0
10.38788 17.287346 0.19688141 0
10.716507 17.293581 0.16398104 0
11.181837 17.142464 0.26788175 0
11.587171 17.27412 0.18794173 0
11.807217 17.257784 0.092035465 0
12.126736 17.29076 0.1910743 0
12.482571 17.321394 0.14484259 0
12.784198 17.329494 0.16377278 0
13.050659 17.287083 0.20749204 0
13.448672 17.313267 0.18171534 0
14.009328 17.317396 0.20608549 0
14.244009 17.266512 0.14568821 0
14.606441 17.309052 0.14630967 0
14.774673 17.284441 0.081594676 0
15.149961 17.302391 0.19175796 0
15.46376 17.317059 0.096681595 0
15.775029 17.318251 0.16652898 0
15.948054 17.298731 0.21501203 0
16.327188 17.287231 0.20764305 0
16.680222 17.303835 0.15466219 0
16.930117 17.29184 0.19288509 0
17.279739 17.293207 0.16612051 0
17.626297 17.318319 0.18071537 0
17.983133 17.296972 0.030628532 0
18.182507 17.316088 0.15843244 0
18.327976 17.349728 0.19399281 0
19.441442 17.371956 0.16418351 0
19.634447 17.278574 0.14137805 0
20.319101 17.344398 0.23701094 0
20.616556 17.248837 0.10536546 0
20.836761 17.309168 0.12698457 0
21.568392 17.293314 0.18869054 0
21.820204 17.349489 0.19625957 0
21.916529 17.315027 0.16935296 0
22.252869 17.277063 0.17125089 0
22.798368 17.265329 0.071074754 0
22.957977 17.245039 0.16387641 0
23.285509 17.271843 0.10491686 0
23.993221 17.295553 0.1693716 0
24.160444 17.286928 0.16159438 0
24.464636 17.234076 0.14848319 0
-48.458977 17.488241 0.17988278 0
-48.144737 17.468327 0.12574494 0
-47.793316 17.444445 0.18127301 0
-47.651535 17.462351 0.077117406 0
-46.337536 17.605982 0.25798762 0
-44.865963 17.630529 0.27166584 0
-40.760086 17.490669 0.12385517 0
-40.477676 17.448473 0.18596444 0
-40.182083 17.422934 0.14427616 0
-20.610714 17.648296 0.10267937 0
-17.468414 17.530571 0.16499597 0
-9.39011 17.528513 0.19458582 0
-9.2366714 17.518772 0.21899399 0
-6.1552238 17.588055 0.12998205 0
-5.2347579 17.430788 0.19217819 0
-4.8736062 17.41115 0.088027224 0
-4.3593478 17.43556 0.22642465 0
3.7318597 17.407248 0.075723648 0
3.9248583 17.409664 0.19167739 0
4.6330171 17.408405 0.29803622 0
6.5826235 17.550846 0.10046753 0
7.4193692 17.618309 0.2386201 0
8.9755287 17.577427 0.0017318726 0
9.7485018 17.412977 0.28493023 0
10.623006 17.582657 0.15251219 0
11.52005 17.485111 0.19741479 0
13.438836 17.507607 0.15650502 0
13.666947 17.483213 0.12835126 0
13.986368 17.488663 0.20199245 0
14.122118 17.516775 0.12328451 0
14.583302 17.448147 0.14262089 0
15.376513 17.408136 0.24869734 0
16.171169 17.452578 0.27870232 0
18.347918 17.403221 0.29697371 0
19.628128 17.495667 0.16871694 0
20.992374 17.430819 0.090701915 0
21.185345 17.472458 0.15151794 0
21.656136 17.425123 0.23631693 0
-46.328796 17.867315 0.20194437 0
-44.862 17.880095 0.14755145 0
-20.783943 17.852764 0.13495111 0
-20.649052 17.713253 0.28018865 0
-17.493822 17.701235 0.14985591 0
-17.273518 17.902199 0.10381629 0
-9.4249191 17.84716 0.19797866 0
-6.1463566 17.877953 0.19306031 0
7.5062399 17.752815 0.13710485 0
10.45945 17.718185 0.11810801 0
10.564606 17.738747 0.16560499 0
18.245617 17.810242 0.14720441 0
18.314865 17.862787 0.16186059 0
19.702209 17.857862 0.10227034 0
-17.283318 18.240301 0.12271512 0
-9.6227751 18.065855 0.10135674 0
-9.5246792 18.141468 0.13071799 0
-6.0420866 18.136353 0.0052950978 0
-17.228914 18.536606 0.17593974 0
-17.17705 18.863777 0.10147339 0
-6.1236305 18.765797 0.18799724 0
-9.6484175 18.979677 0.13421422 0
-17.302216 19.417076 0.11580896 0
-9.6587248 19.324446 0.089034736 0
-20.810257 19.659191 0.20475005 0
-17.321068 19.70056 0.16501006 0
-9.6519623 19.588293 0.10232943 0
-9.531023 19.72142 0.15166354 0
-6.056561 19.796793 0.11234695 0
-5.9972072 19.728584 0.12600839 0
-20.803078 19.94453 0.09141095 0
-6.1130548 19.947807 0.11690363 0
-20.811556 20.226591 0.017911732 0
-9.6290245 20.343529 0.26970968 0
-6.0356135 20.168823 0.16615251 0
-17.323772 20.657101 0.1291393 0
-6.1764832 20.4603 0.15122882 0
-20.848183 20.859085 0.14514029 0
-17.355518 20.729555 0.15410924 0
-6.0490174 20.808142 0.060411096 0
-9.6479044 21.201551 0.14172021 0
-6.07339 21.273403 0.17227204 0
-20.829063 21.461636 0.14155228 0
-19.942535 21.521402 0.15205067 0
-19.075153 21.565813 0.058375835 0
-18.377167 21.521616 0.12909341 0
-18.277637 21.515392 0.16444802 0
-17.41501 21.556425 0.12659949 0
-17.362881 21.409613 0.11143251 0
-9.6838779 21.431541 0.023120075 0
-8.7235603 21.538136 0.20419328 0
-8.6050253 21.596542 0.072175026 0
-8.0233345 21.576656 0.16955607 0
-7.5882697 21.544662 0.18733257 0
-7.140686 21.537655 0.13719612 0
-6.08951 21.55685 0.24663401 0
-20.779604 21.658649 0.13025331 0
-20.550766 21.636581 0.20485984 0
-20.327091 21.662897 0.2202799 0
-20.031015 21.688831 0.12668306 0
-19.722736 21.674358 0.13703945 0
-19.485706 21.631304 0.12906487 0
-18.971085 21.65493 0.12390462 0
-18.483583 21.711519 0.18261869 0
-18.076195 21.68186 0.1734634 0
-17.744535 21.685347 0.11558527 0
-9.5242929 21.709499 0.19368407 0
-9.1207724 21.811087 0.12065885 0
-8.6502972 21.772236 0.12447929 0
-7.9343405 21.688074 0.058763105 0
-7.535121 21.617008 0.17224582 0
-7.0588946 21.696676 0.18179075 0
-6.7787647 21.794909 0.14053398 0
-6.3868346 21.814127 0.23680399 0
-6.1563759 21.694271 0.19452702 0
-17.326761 21.993818 0.086132228 0
-8.6539469 21.958879 0.26792932 0
-6.0535207 22.14856 0.17187516 0
-17.389179 22.288023 0.085065141 0
-9.6116829 22.211256 0.15989569 0
-9.5884705 22.466717 0.023830622 0
-6.0848093 22.355625 0.11521641 0
-20.853352 22.688442 0.044309318 0
-9.5971203 22.753954 0.23093024 0
-6.0755587 22.700718 0.15431628 0
-6.0850329 23.041752 0.13114938 0
-17.395226 23.284214 0.090489179 0
-20.850992 23.51651 0.1382419 0
-17.512323 23.516487 0.051906418 0
-17.37509 23.478296 0.19065377 0
-9.6573811 23.530067 0.25388035 0
-9.5475693 23.552078 0.14197369 0
-6.1816297 23.621283 0.16276099 0
-17.604717 23.886534 0.03625378 0
-6.1680536 23.837479 0.22268859 0
-12.519073 -7.3883619 0.39743334 0
-11.427547 -7.4828348 0.33098984 0
-20.542217 -6.6936326 0.42005086 0
-15.294124 -6.7479024 0.38261035 0
-13.628907 -6.7499914 0.47144994 0
-11.634445 -6.7810988 0.40392223 0
-19.826881 -6.4524832 0.41054231 0
-19.249332 -6.4548683 0.31461915 0
-19.009314 -6.4175725 0.32868132 0
-18.46463 -6.4338675 0.40687001 0
-18.21188 -6.4240704 0.30219233 0
-17.697786 -6.3915353 0.37101096 0
-17.385845 -6.4230661 0.49086574 0
-16.883074 -6.46134 0.30658484 0
-16.337515 -6.3876677 0.33852482 0
-16.146811 -6.3006878 0.30809304 0
-15.011408 -6.3440952 0.31195396 0
-11.894665 -6.4084191 0.38736662 0
-10.897715 -6.3150792 0.4337604 0
-10.589126 -6.380528 0.30561081 0
-10.338663 -6.4023576 0.46765071 0
-9.6844292 -6.4338527 0.30377433 0
-9.5959997 -6.4063768 0.3188704 0
-9.0876141 -6.399436 0.37325698 0
-8.7833128 -6.450129 0.3220776 0
-8.5991783 -6.4686584 0.41715497 0
-8.3638573 -6.3997898 0.39009324 0
-7.8942838 -6.3910394 0.33969566 0
-7.6043224 -6.4190211 0.31781855 0
-7.4425297 -6.3449607 0.44084018 0
-6.9610991 -6.3751874 0.42252016 0
-20.533394 -6.1599569 0.32487065 0
-20.002996 -6.2781215 0.32092223 0
-19.150364 -6.2339802 0.33925709 0
-18.130653 -6.2410984 0.48620385 0
-16.28573 -6.2547579 0.33310845 0
-16.099674 -6.2415543 0.38958186 0
-14.88466 -6.2404394 0.40676704 0
-12.321565 -6.0754123 0.42056194 0
-12.138639 -6.1658392 0.4349865 0
-10.840463 -6.2938466 0.43105942 0
-10.714596 -6.2245216 0.42651805 0
-8.7470474 -6.273591 0.40297598 0
-8.576993 -6.2228875 0.39031214 0
-7.7505884 -6.233757 0.34335938 0
-6.9790788 -6.2712703 0.33816898 0
-14.522005 -5.8558621 0.30686796 0
-14.111474 -5.7788806 0.37115359 0
-13.948551 -5.7406058 0.34223843 0
-13.774437 -5.7118807 0.43014687 0
-12.912206 -5.7737513 0.47782981 0
-12.690342 -5.8664827 0.43968689 0
-12.423016 -5.8676538 0.47548252 0
-20.608147 -5.5877981 0.36828977 0
-7.4276628 -5.5661459 0.39405966 0
-20.609882 -5.1404624 0.39831463 0
-6.8160486 -5.1533284 0.36046198 0
-6.2733402 -5.1574249 0.30295622 0
-20.491068 -4.8046227 0.32853383 0
-7.9031219 -4.8724813 0.39701337 0
-6.2828646 -5.0142493 0.4337039 0
-7.8812652 -4.6698365 0.44882593 0
-7.2458715 -4.7875423 0.48568884 0
-6.6947017 -4.7682657 0.40325159 0
-20.549423 -4.3584557 0.32108271 0
-7.8192058 -4.2815275 0.35395035 0
-6.8273969 -4.3451686 0.46198669 0
-6.284543 -4.4847121 0.43762931 0
-20.551651 -4.1036654 0.49785075 0
-7.8554134 -4.032855 0.39489263 0
-6.6696005 -4.08148 0.37887669 0
-6.4437375 -4.0704913 0.44417009 0
-6.253561 -4.0144873 0.31370321 0
-20.511845 -3.7508626 0.3767952 0
-7.8018088 -3.6726708 0.37354511 0
-6.7030931 -3.8725367 0.3664569 0
-6.5142508 -3.6562123 0.38791633 0
-6.154819 -3.7657266 0.40956008 0
-20.501755 -3.5756686 0.30597198 0
-7.8758402 -3.384202 0.46241122 0
-7.3561759 -3.3008604 0.4108519 0
-6.2016153 -3.4216595 0.30989861 0
-7.8572078 -3.2319696 0.31850964 0
-7.7839622 -3.2316608 0.42429852 0
-7.1869755 -3.1712074 0.4212181 0
-20.525846 -2.8239625 0.46734789 0
-17.620798 -2.7671795 0.4011986 0
-16.869827 -2.7765288 0.39599186 0
-16.757887 -2.7628038 0.42542982 0
-10.100993 -2.7250099 0.30306095 0
-9.3371277 -2.7730534 0.49608374 0
-9.1749249 -2.8298872 0.36973342 0
-6.6049562 -2.916425 0.47197092 0
-20.597843 -2.4576263 0.37422499 0
-17.575474 -2.4876132 0.38134378 0
-10.426361 -2.6505532 0.33590496 0
-10.075567 -2.6859624 0.49785712 0
-9.3325653 -2.5854292 0.46965539 0
-9.1441889 -2.5267847 0.43083265 0
-24.048588 -2.1659353 0.4646965 0
-23.8578 -2.1409626 0.46491882 0
-23.215216 -2.1847069 0.44101083 0
-22.505957 -2.2427123 0.48521438 0
-22.363159 -2.2335 0.41425034 0
-22.039978 -2.2338343 0.36910683 0
-21.760981 -2.2787337 0.36329281 0
-21.548513 -2.1452148 0.41879934 0
-20.518946 -2.2582407 0.39961904 0
-17.555819 -2.2800202 0.47249803 0
-16.863194 -2.3082058 0.35294068 0
-16.773218 -2.3740523 0.48498106 0
-10.177575 -2.3475862 0.42385995 0
-9.2088127 -2.2435637 0.34414124 0
-5.2664528 -2.2547998 0.4375166 0
-49.63401 -1.8748925 0.40150958 0
-49.333263 -1.9371821 0.38995755 0
-48.959198 -1.8728361 0.40569419 0
-48.666428 -1.9484468 0.33250979 0
-48.514771 -2.0038626 0.42197871 0
-48.019001 -1.9977634 0.37291843 0
-47.714306 -1.8781199 0.48838124 0
-47.647942 -1.823841 0.35767776 0
-47.292236 -1.8758953 0.39345026 0
-46.971222 -1.844641 0.38173792 0
-46.704842 -1.8451486 0.33066401 0
-46.382793 -1.856596 0.49945852 0
-45.510372 -1.8388137 0.30162603 0
-45.187626 -1.8188515 0.46001005 0
-44.551575 -1.8753681 0.38634121 0
-44.110352 -1.9038458 0.37147844 0
-44.028267 -1.8795698 0.40822238 0
-43.626511 -1.9285967 0.41302639 0
-42.93499 -1.8598282 0.40170437 0
-42.747414 -1.8997625 0.38436127 0
-42.489197 -1.8946235 0.41934252 0
-42.150265 -1.9075019 0.38178849 0
-41.904839 -1.8676174 0.48470035 0
-41.492481 -1.8526597 0.42043141 0
-41.301762 -1.9052376 0.44390652 0
-40.929173 -1.8555084 0.33044273 0
-40.631622 -1.8639696 0.4442575 0
-40.408569 -1.8861036 0.34996226 0
-40.058403 -1.9019132 0.3916434 0
-39.462875 -1.9135275 0.39230359 0
-38.805157 -1.9271989 0.37302932 0
-38.541405 -1.8989751 0.34353405 0
-38.311615 -1.9084966 0.35381037 0
-37.970509 -1.9080639 0.34003419 0
-37.711353 -1.9008217 0.38910809 0
-37.406864 -1.891187 0.33528069 0
-36.422314 -1.925642 0.40035456 0
-36.190777 -1.8893852 0.49331874 0
-35.884869 -1.9315137 0.49643582 0
-35.561764 -1.9087535 0.38319111 0
-35.299137 -1.9053005 0.40547001 0
-34.908623 -1.9968364 0.33902967 0
-34.651794 -1.9555981 0.42735109 0
-34.266151 -1.9142971 0.36177075 0
-34.01709 -1.9630477 0.39370987 0
-33.891685 -1.932775 0.49475107 0
-32.836926 -1.9188753 0.41807246 0
-32.455261 -1.9648181 0.39527154 0
-32.123432 -2.0005507 0.47998679 0
-31.630257 -1.9439329 0.42818478 0
-31.412966 -1.9716227 0.47235131 0
-30.702957 -1.8676225 0.32463473 0
-30.551407 -1.9810505 0.4092949 0
-30.290049 -1.9782616 0.49796376 0
-29.9492 -1.8503361 0.34697056 0
-29.50131 -1.8356526 0.30335271 0
-29.241999 -1.9762506 0.39036584 0
-28.992277 -1.9089471 0.44303575 0
-28.752707 -1.9848588 0.40242082 0
-28.369854 -1.9138225 0.4556033 0
-28.072815 -1.9664614 0.39366293 0
-27.047722 -1.9264666 0.41662198 0
-26.100691 -1.9406517 0.45387951 0
-25.679306 -1.949728 0.40516645 0
-25.433716 -1.9882169 0.41830939 0
-24.744549 -2.001173 0.48089018 0
-24.488817 -2.0015206 0.49060646 0
-24.120031 -1.9958805 0.3048639 0
-23.80513 -1.9914447 0.37974215 0
-23.492258 -2.0486646 0.49490976 0
-23.316656 -2.0072746 0.42786375 0
-22.889032 -2.0499358 0.40711892 0
-22.584253 -2.0262008 0.38859963 0
-21.612915 -2.0106549 0.31202066 0
-21.487553 -1.9671801 0.36759579 0
-21.140987 -1.9223329 0.36773965 0
-20.829382 -1.927608 0.38794994 0
-20.557655 -1.9619784 0.40154919 0
-17.546326 -2.0082536 0.38582936 0
-17.301434 -1.9945869 0.39348289 0
-16.967846 -2.0085294 0.42546403 0
-16.7563 -2.0272427 0.38607067 0
-10.040623 -1.9993231 0.39910722 0
-9.8238764 -1.9521326 0.40645814 0
-9.1892996 -1.9716457 0.37008527 0
-6.3459911 -1.9983797 0.38598499 0
-6.0591402 -1.9419994 0.3545638 0
-5.8437481 -1.9819798 0.32284853 0
-5.5783038 -1.9581035 0.4114165 0
-5.2707529 -2.0005035 0.30342731 0
-4.2631626 -1.9397633 0.39334348 0
-4.0565372 -1.9444324 0.40441909 0
-3.6298873 -1.910942 0.35244399 0
-3.3487635 -1.966704 0.32319856 0
-3.131624 -1.9583466 0.33329779 0
-2.8746288 -1.9810805 0.31009644 0
-2.2139678 -1.8296041 0.40810254 0
-1.9148129 -1.9757119 0.30023468 0
-1.6942558 -1.924059 0.43235314 0
-1.3229685 -1.9311303 0.43937746 0
-0.76954186 -1.9358763 0.39791089 0
-0.55582958 -1.9387072 0.48041639 0
-0.27549449 -1.9727635 0.43470696 0
0.44395855 -1.9356377 0.42568722 0
0.77634072 -1.9602598 0.36363131 0
0.98475301 -1.9115465 0.43485412 0
2.0193689 -1.8972179 0.47588468 0
2.2870097 -1.9584074 0.44680494 0
2.505255 -1.9365336 0.41180953 0
2.9589486 -1.9107093 0.37499386 0
3.1925287 -1.9540145 0.46575022 0
3.3651788 -1.8985388 0.3233887 0
3.7210007 -1.8761489 0.3709853 0
4.7134156 -1.8778223 0.36664772 0
5.953136 -1.869969 0.36940417 0
7.0039101 -1.8760244 0.43357953 0
7.4438505 -1.8640321 0.31158203 0
7.6849718 -1.8877077 0.47437817 0
8.0663118 -1.8869209 0.3814882 0
8.2499599 -1.9039544 0.40914083 0
8.5537977 -1.8576516 0.47150254 0
8.7695112 -1.8878688 0.44932666 0
9.0938759 -1.8403045 0.38678706 0
9.5970697 -1.8906541 0.31277195 0
9.8050251 -1.8807945 0.33970851 0
10.056282 -1.8352898 0.39363328 0
10.431769 -1.8477015 0.31341243 0
10.696152 -1.874074 0.33761147 0
10.955997 -1.8549712 0.42618942 0
11.196795 -1.8438424 0.34945825 0
11.64531 -1.8295586 0.32931036 0
11.785218 -1.8400216 0.32635081 0
12.056534 -1.8426914 0.34255546 0
12.498753 -1.8490835 0.45509976 0
12.986303 -1.8355089 0.38255715 0
13.279887 -1.8504152 0.42071274 0
13.582167 -1.8213532 0.40286642 0
13.902523 -1.8629447 0.38717806 0
14.267755 -1.8527794 0.32034448 0
14.513164 -1.863976 0.42666787 0
14.954161 -1.8764701 0.49589568 0
15.236643 -1.8259345 0.30187249 0
15.407627 -1.810891 0.3893455 0
15.607594 -1.8386977 0.40020621 0
16.457075 -1.8046778 0.30433479 0
16.596487 -1.8493562 0.42453507 0
17.306145 -1.8871931 0.38298795 0
17.536348 -1.8713181 0.47139427 0
17.83383 -1.8232471 0.31922749 0
18.239555 -1.8914828 0.39063835 0
18.687698 -1.843027 0.31307101 0
19.496452 -1.8289384 0.45905742 0
19.560396 -1.8870001 0.33375999 0
20.286749 -1.8113552 0.44414845 0
20.914864 -1.9512384 0.31967026 0
21.02866 -1.885703 0.33058232 0
21.754656 -1.9665637 0.35843703 0
22.059679 -1.8684345 0.3041169 0
22.446903 -1.8735285 0.36262685 0
23.220703 -1.8534412 0.39940387 0
23.466953 -1.8427835 0.36724752 0
23.919462 -1.8339267 0.32366318 0
24.170618 -1.8250824 0.38982868 0
24.414034 -1.8135513 0.31903937 0
-49.676777 -1.5719066 0.40078437 0
-48.845947 -1.7417035 0.33797938 0
-47.907112 -1.7928157 0.45501763 0
-46.451012 -1.6160133 0.31326911 0
-45.650639 -1.7474738 0.47190112 0
-5.4784627 -1.76635 0.41125542 0
5.8997879 -1.7755913 0.48542845 0
10.727953 -1.7482725 0.31161171 0
11.589281 -1.7935742 0.48693085 0
11.834583 -1.799419 0.41289949 0
14.040128 -1.7658545 0.38862896 0
14.415388 -1.7807673 0.3610796 0
16.072878 -1.7576027 0.40196574 0
16.472263 -1.7771511 0.46220523 0
16.701544 -1.7638047 0.32203037 0
22.473003 -1.7788663 0.39236319 0
24.15564 -1.6428636 0.3762351 0
-51.059006 -1.220065 0.30495554 0
-50.842789 -1.2266459 0.39116025 0
-50.312195 -1.2697058 0.33976746 0
-49.867966 -1.2596087 0.39318427 0
-49.680183 -1.2786486 0.34097284 0
24.4874 -1.3105977 0.37419292 0
-51.279099 -1.0135316 0.41292548 0
-50.203632 -1.1920238 0.45576167 0
24.403366 -0.99651217 0.38478196 0
-51.293812 -0.77220464 0.45680815 0
24.349796 -0.64423025 0.38077334 0
-51.274406 -0.38042083 0.46612597 0
-39.840866 -0.30085868 0.49652517 0
-32.521172 -0.32388276 0.47172627 0
-25.076794 -0.33129013 0.31175345 0
-24.262657 -0.33538118 0.36020753 0
-21.35162 -0.33481264 0.40148669 0
-20.450809 -0.47663581 0.40214011 0
-6.3519325 -0.36592051 0.49338269 0
-2.5492125 -0.30899069 0.49896282 0
24.321564 -0.44138694 0.4790079 0
-51.308376 -0.14493388 0.49622607 0
-51.265083 -0.1528226 0.35221866 0
-43.73687 -0.12174167 0.38686514 0
-43.370747 -0.20953862 0.44569388 0
-42.991169 -0.099173687 0.43597797 0
-42.808964 -0.15454824 0.38282514 0
-40.291878 -0.24936928 0.42845953 0
-40.039402 -0.1181739 0.36973929 0
-39.765728 -0.29192322 0.38836128 0
-39.409351 -0.23665346 0.41619313 0
-39.250748 -0.19226392 0.37374592 0
-32.703335 -0.23955487 0.36005163 0
-32.486618 -0.15170282 0.40043819 0
-31.769205 -0.11856141 0.35674223 0
-25.040607 -0.12076237 0.48083091 0
-24.300007 -0.11516642 0.36115986 0
-24.233912 -0.17694302 0.46140268 0
-21.315722 -0.16277745 0.31351787 0
-20.503075 -0.19485827 0.39676118 0
-6.3069992 -0.17091089 0.48688975 0
-6.163136 -0.15893897 0.40740472 0
-5.5014076 -0.23779717 0.39699602 0
-2.4638021 -0.19960998 0.44811571 0
-1.7281296 -0.1047639 0.48504245 0
4.9870796 -0.1340798 0.38380051 0
5.6483784 -0.20666203 0.4547171 0
